ncols        331
nrows        32
xllcorner    174.818583529
yllcorner    -41.312354564
cellsize     0.000010273382
NODATA_value  -9999.000000
3.007868 3.002012 3.034863 3.043848 3.052693 3.030937 2.998992 2.962532 2.944034 2.983768 3.033047 3.053817 3.062346 3.041567 3.033598 3.047955 3.038568 3.032065 3.026953 3.021240 3.014745 3.008061 3.001541 2.995134 2.989273 2.985389 2.989516 3.002085 3.024352 3.046900 3.056794 3.052483 3.016104 2.982042 2.965338 2.949944 2.928246 2.907794 2.895824 2.894907 2.912060 2.947134 2.991354 3.026020 3.037390 3.023932 2.927052 2.887514 2.864196 2.857456 2.869012 2.888573 2.902983 2.920283 2.926394 2.927430 2.932838 2.941525 2.949656 2.957222 2.962615 2.963808 2.922335 2.903734 2.931381 2.930685 2.850492 2.916067 2.872350 2.869366 2.945272 2.999774 2.975054 2.939584 3.003046 3.046098 3.117450 3.146413 3.116989 3.050772 3.002626 3.049073 3.086427 3.120413 3.175185 3.244919 3.337239 3.414415 3.370463 3.231812 3.272708 3.336827 3.411895 3.440567 3.383469 3.371637 3.469537 3.387538 3.358921 3.398438 3.400827 3.371034 3.405209 3.066690 3.179623 3.086526 2.989657 3.031212 3.143203 3.203175 3.155558 3.188600 3.229609 3.202588 3.128827 3.096449 3.164415 3.219049 3.168948 3.069180 3.030190 3.064885 3.113336 3.123674 3.147336 3.070389 3.135403 3.101551 3.067934 3.104927 3.136441 3.153125 3.162683 3.168174 3.171832 3.178385 3.174444 3.157685 3.165499 3.132751 3.128438 3.133228 3.102901 3.045115 2.994328 2.944553 2.909393 2.963339 2.932240 2.921689 2.933524 2.933203 2.987795 3.075114 3.013419 2.987882 2.992884 3.006821 3.045593 3.104176 2.995165 3.089975 3.229891 3.244636 3.199894 3.187118 3.169498 3.138638 3.107852 3.078344 3.048210 3.014203 2.970570 2.917435 2.881000 2.956699 2.909881 2.887321 2.903906 2.939417 3.022173 3.192736 3.202563 3.157529 3.123214 3.105846 3.097587 3.095022 3.095529 3.097658 3.100554 3.103307 3.105486 3.107021 3.109366 3.112172 3.089266 2.976552 3.042495 3.128706 3.143237 3.132828 3.133158 3.132947 3.142507 3.133857 3.072590 2.971385 2.874049 2.837206 2.890646 2.895175 3.010981 3.053742 3.023063 3.019180 3.059716 3.093095 3.132134 3.157982 3.130666 3.102205 3.110207 3.151486 3.220179 3.245031 3.248527 3.237279 3.239922 3.232733 3.185265 3.196949 3.237953 3.276783 3.319697 3.358870 3.354980 3.297173 3.255779 3.213748 3.215931 3.199104 3.147211 3.163028 3.270311 3.253842 3.292799 3.386628 3.368568 3.404649 3.448684 3.389930 3.363128 3.476251 3.508702 3.491827 3.506380 3.472423 3.373877 3.378873 3.281871 3.429255 3.442861 3.522278 3.542936 3.379065 3.243852 3.444733 3.313845 3.341073 3.344882 3.334111 3.366052 3.380304 3.335474 3.288630 3.310514 3.357735 3.357289 3.366047 3.442563 3.349879 3.404260 3.429742 3.433826 3.413569 3.328675 3.185341 3.120129 3.206681 3.197708 3.214856 3.225964 3.221712 3.208337 3.144517 3.208177 3.273328 3.282415 3.343027 3.418591 3.434127 3.447886 3.518022 3.583404 3.557219 3.510294 3.478282 3.456190 3.445380 3.441273 3.441522 3.445568 3.453187 3.464339 3.479867 3.496794 3.496891 3.513882 3.479280 3.469034 3.479625 3.487647 3.502194 3.518912 3.535843 3.552703 3.570991 3.564569 3.563981 3.614437
3.014389 2.953796 2.978458 3.062743 3.054716 3.002267 2.972631 2.981032 2.982824 2.944693 2.998950 3.028805 3.045138 3.048700 3.042645 3.039328 3.047747 3.019225 3.014338 3.011683 3.008151 3.003024 2.995814 2.986865 2.977159 2.968765 2.944092 2.977152 3.019675 3.029590 3.035944 3.031247 3.020878 3.012004 2.989625 2.960577 2.933331 2.910181 2.900090 2.904924 2.925337 2.952207 2.976382 2.988114 2.983882 2.969213 2.913252 2.899381 2.834467 2.820844 2.858865 2.873937 2.885877 2.896325 2.907333 2.918978 2.931392 2.946114 2.963192 2.979528 2.995613 3.027417 2.947540 2.874335 2.872052 2.917965 2.948800 2.951288 2.958647 2.942966 2.945193 2.973503 3.010651 3.054146 3.106387 3.160981 3.222939 3.233169 3.163789 3.079602 3.086818 3.151086 3.126690 3.150523 3.175103 3.231345 3.319959 3.389845 3.396491 3.413535 3.459911 3.446542 3.428304 3.403626 3.346186 3.358643 3.439608 3.307143 3.346152 3.342388 3.301601 3.373570 3.377347 3.285170 3.193944 3.079776 3.038772 3.069125 3.115390 3.157475 3.170296 3.160574 3.192418 3.151896 3.063195 3.062707 3.182559 3.129930 3.074320 3.103867 3.065880 3.042144 3.100155 3.126419 3.145480 3.130193 3.100883 3.124801 3.165235 3.181548 3.189006 3.190980 3.190117 3.188399 3.187402 3.187706 3.189803 3.194984 3.204305 3.213097 3.156280 3.134839 3.111595 3.076942 3.065098 3.052466 3.088470 3.050189 2.991205 2.952725 2.939880 2.964763 3.064746 3.075390 3.002432 2.979825 3.003683 3.047845 3.087780 3.104249 3.106752 3.146022 3.160682 3.158323 3.152060 3.143655 3.133231 3.116595 3.092457 3.064120 3.033682 3.002247 2.964853 2.913569 2.858180 2.883522 2.908128 2.918445 2.953594 3.030341 3.119640 3.215055 3.131599 3.122017 3.116466 3.103051 3.094803 3.090442 3.088900 3.089006 3.090011 3.091125 3.091726 3.091460 3.092043 3.102416 3.172866 3.045995 3.053977 3.093502 3.094218 3.096829 3.094605 3.089624 3.081742 3.070985 3.047883 2.982872 2.915489 2.956104 2.897749 2.985448 2.977109 2.967579 3.001290 3.040259 3.068009 3.093365 3.115739 3.132114 3.141859 3.094740 3.055928 3.163220 3.199901 3.241715 3.282205 3.284531 3.300137 3.346893 3.341033 3.215775 3.251029 3.290009 3.331308 3.390229 3.460271 3.477229 3.324808 3.287431 3.220839 3.229951 3.301130 3.297169 3.188735 3.297999 3.212970 3.186467 3.244969 3.306905 3.338609 3.371537 3.384183 3.419090 3.501280 3.523689 3.505630 3.465118 3.449299 3.507757 3.392482 3.465371 3.488468 3.481347 3.479081 3.463217 3.399782 3.533786 3.399297 3.435184 3.433190 3.412564 3.426137 3.380888 3.412395 3.402457 3.329358 3.326555 3.366375 3.390486 3.409688 3.353493 3.394006 3.443041 3.434553 3.425289 3.412439 3.321600 3.260717 3.244005 3.250213 3.257261 3.235716 3.206601 3.214087 3.248691 3.229315 3.205064 3.267412 3.361403 3.418022 3.432500 3.453821 3.456125 3.619905 3.628047 3.546544 3.478423 3.448576 3.436502 3.432416 3.432987 3.437268 3.445125 3.458269 3.472288 3.472278 3.445831 3.525098 3.463429 3.433047 3.454494 3.469681 3.484856 3.500589 3.516143 3.530937 3.543861 3.551512 3.559229 3.569026
3.050319 3.038197 2.962330 3.017946 3.026103 3.005268 2.999981 3.005700 2.998552 2.990589 3.015132 3.037328 3.055905 3.070326 3.063306 3.039834 3.043697 3.009699 2.996927 3.000733 3.004096 2.999982 2.989700 2.974699 2.954981 2.910083 2.985663 3.036880 3.029402 3.020942 3.038612 3.041061 3.039136 3.035132 3.016137 2.985429 2.949397 2.913568 2.900676 2.909180 2.932575 2.955543 2.967453 2.965128 2.949976 2.921233 2.865709 2.810468 2.818937 2.846734 2.860262 2.870212 2.878543 2.886797 2.896105 2.907259 2.920232 2.936118 2.957170 2.984601 3.011667 3.052465 3.063588 2.988596 2.925462 2.945445 2.930889 2.933349 2.982303 2.997720 2.999978 3.022214 3.078648 3.140261 3.160452 3.192747 3.226993 3.233478 3.153533 3.083630 3.197027 3.150676 3.166095 3.129519 3.256580 3.342978 3.285344 3.319588 3.489787 3.481604 3.490726 3.476408 3.449809 3.419601 3.392597 3.435277 3.429950 3.431005 3.447102 3.444095 3.391893 3.301234 3.289363 3.255395 3.050215 3.041954 3.088630 3.110079 3.154185 3.137435 3.065206 3.089746 3.186002 3.188571 3.143763 3.154378 3.144803 3.099020 3.082936 3.047505 3.026738 3.048911 3.078885 3.074566 3.159018 3.183418 3.165761 3.202292 3.247829 3.245318 3.235194 3.224626 3.214814 3.206274 3.199294 3.193915 3.190343 3.189422 3.193693 3.225560 3.194609 3.163188 3.159689 3.183774 3.206818 3.176180 3.170952 3.138920 3.099665 3.068950 3.037595 3.001357 3.003849 3.055802 3.012777 2.935101 2.970133 3.067209 3.091936 3.098711 3.105302 3.109656 3.118829 3.120858 3.113460 3.103941 3.095098 3.083668 3.068382 3.048538 3.024825 3.001964 2.966197 2.895067 2.870134 2.883436 2.881434 2.875520 2.926686 3.044700 3.152731 3.204089 3.125061 3.107978 3.103524 3.095001 3.089873 3.086175 3.083225 3.081112 3.080037 3.079404 3.078168 3.075010 3.069639 3.064426 3.067983 3.053591 3.054847 3.062943 3.067060 3.066001 3.061125 3.052844 3.043086 3.032451 3.018759 2.996655 2.981267 3.010864 3.013159 3.004033 2.989051 3.001610 3.033237 3.059613 3.080195 3.097214 3.111995 3.123813 3.131118 3.131111 3.120440 3.112225 3.202555 3.228945 3.279441 3.234310 3.209965 3.287675 3.311622 3.218091 3.234875 3.271175 3.313941 3.356647 3.393991 3.417049 3.397382 3.316312 3.256517 3.285009 3.285271 3.251628 3.293561 3.214326 3.213066 3.186005 3.223393 3.229832 3.215306 3.269741 3.321270 3.347692 3.426079 3.480203 3.468792 3.445344 3.443612 3.383900 3.414237 3.473392 3.523977 3.443857 3.401031 3.501923 3.438682 3.362177 3.431051 3.481780 3.415713 3.351934 3.375554 3.372800 3.301340 3.415430 3.336913 3.337232 3.356623 3.293108 3.268410 3.277265 3.258497 3.396716 3.357767 3.359666 3.461820 3.353205 3.360693 3.339105 3.344901 3.305938 3.266698 3.265412 3.269209 3.258343 3.283598 3.272048 3.319926 3.400099 3.473762 3.500839 3.385551 3.423502 3.471463 3.520978 3.517075 3.461729 3.415653 3.404334 3.407410 3.414906 3.424885 3.437448 3.451080 3.479741 3.549306 3.557969 3.427844 3.391872 3.411194 3.432584 3.449830 3.465537 3.480398 3.494483 3.507663 3.519282 3.528922 3.536898 3.543562
3.067916 3.062422 3.047190 3.088847 3.035668 3.035714 3.043555 3.024130 3.017364 3.027793 3.039233 3.050586 3.064322 3.079256 3.064632 3.019741 3.017230 2.939224 2.974374 2.997403 3.013540 3.019523 2.998032 2.965285 2.913720 2.935968 2.978858 3.036858 3.047243 3.012939 3.059827 3.044036 3.028862 3.014747 3.000713 2.991251 2.971669 2.920540 2.898289 2.897646 2.930970 2.956825 2.961954 2.952322 2.931815 2.900657 2.864622 2.866323 2.864864 2.862565 2.867297 2.871206 2.875264 2.880044 2.886281 2.895040 2.906469 2.921419 2.942294 2.972156 3.010189 3.028080 3.020985 3.007299 3.002087 2.992888 2.948121 2.911852 2.981631 3.062753 3.110544 3.126109 3.129696 3.150930 3.174939 3.203489 3.238677 3.284500 3.244163 3.167464 3.282456 3.227262 3.275973 3.332141 3.373681 3.362951 3.348132 3.428599 3.474944 3.468117 3.443905 3.385745 3.321186 3.316460 3.385664 3.358892 3.438179 3.550579 3.477426 3.386477 3.339952 3.228930 3.216593 3.089197 3.005910 3.088927 3.155712 3.159849 3.185197 3.124995 3.049172 3.113617 3.159846 3.187282 3.185074 3.145053 3.169090 3.151616 3.124806 3.059779 2.912217 2.862802 3.024706 3.107240 3.153090 3.111467 3.222612 3.320638 3.325862 3.295394 3.271622 3.251764 3.234776 3.219880 3.206642 3.195333 3.186232 3.179302 3.175374 3.179850 3.221703 3.223829 3.208645 3.207238 3.189648 3.137159 3.226698 3.242417 3.201685 3.145740 3.092297 3.032624 2.971046 3.037840 2.982675 2.951584 2.984991 3.032939 3.053303 3.069287 3.072955 3.079386 3.084831 3.085551 3.080478 3.071376 3.061651 3.051839 3.039976 3.025753 3.007490 2.994003 2.972417 2.908198 2.928228 2.872636 2.870759 2.893104 2.949295 3.047481 3.118479 3.125174 3.094217 3.087568 3.088770 3.088250 3.087355 3.085681 3.082256 3.078143 3.074281 3.071512 3.068678 3.064382 3.045935 2.970122 3.018786 3.039123 3.045845 3.049891 3.050520 3.047169 3.040330 3.031257 3.022067 3.013134 3.004462 2.995757 2.997185 3.034068 3.041582 3.035058 3.048537 3.065882 3.077967 3.092091 3.105586 3.117419 3.128394 3.137807 3.145444 3.151869 3.159050 3.177129 3.256950 3.233432 3.183891 3.150715 3.139458 3.128516 3.121994 3.158766 3.192283 3.229508 3.269510 3.307087 3.337022 3.354215 3.347076 3.316470 3.297828 3.309315 3.318475 3.320611 3.325830 3.308983 3.296146 3.308082 3.277272 3.250803 3.260705 3.270184 3.288650 3.315763 3.310692 3.299115 3.364098 3.433557 3.404005 3.421851 3.324258 3.455875 3.486831 3.393337 3.320818 3.367400 3.470811 3.457361 3.542084 3.498742 3.455915 3.470383 3.474194 3.419265 3.411572 3.331877 3.305077 3.295468 3.313064 3.356648 3.349404 3.345234 3.231532 3.284475 3.333813 3.348575 3.367929 3.390273 3.388391 3.424944 3.397392 3.355139 3.347322 3.359499 3.337534 3.290961 3.352995 3.366580 3.368836 3.392543 3.432614 3.442333 3.372097 3.411737 3.402362 3.458736 3.510552 3.504941 3.455212 3.338252 3.379471 3.412346 3.440206 3.462715 3.462034 3.461455 3.541457 3.478723 3.380924 3.367490 3.388793 3.405803 3.421703 3.436644 3.450710 3.464153 3.477034 3.489483 3.501772 3.514224 3.526756
3.038183 3.051753 3.144239 3.150671 3.099897 3.071838 3.059000 3.042818 3.030596 3.034266 3.044994 3.055191 3.062753 3.061870 3.049078 3.013574 2.932400 2.991421 2.961594 2.980728 3.025272 3.043075 3.020974 2.958508 2.885354 2.935972 2.962738 2.994280 3.020750 3.024175 3.053785 3.039956 3.022803 3.002945 2.979661 2.973405 2.979667 2.948912 2.913495 2.904061 2.941738 2.985272 2.987046 2.948110 2.924033 2.903318 2.896596 2.895423 2.890158 2.882984 2.878025 2.875083 2.873745 2.874276 2.876726 2.881639 2.889706 2.902018 2.920577 2.948823 2.996241 2.994179 2.980821 2.973379 2.970986 2.970680 2.974003 2.954314 2.984253 2.982360 3.056032 3.148126 3.138102 3.158282 3.176516 3.199120 3.225048 3.249836 3.251484 3.228894 3.223759 3.269186 3.262838 3.279995 3.314252 3.328058 3.369127 3.541141 3.564943 3.451595 3.343956 3.341692 3.401018 3.417422 3.360992 3.331177 3.352855 3.425527 3.396379 3.323554 3.278492 3.204234 3.121614 3.070719 3.082050 3.158925 3.220801 3.210649 3.149501 3.088146 3.080721 3.109268 3.114068 3.152840 3.196070 3.174947 3.203546 3.215935 3.121366 3.046923 2.966109 2.948322 3.032360 3.040710 3.094848 3.163758 3.300004 3.379894 3.367617 3.321791 3.292248 3.267958 3.246848 3.227580 3.209228 3.192010 3.176408 3.162344 3.150137 3.136822 3.173397 3.194742 3.201802 3.213746 3.213769 3.233395 3.252064 3.289020 3.240149 3.170091 3.140018 3.097080 3.049878 3.018950 2.930226 2.900028 2.935854 2.990506 3.024521 3.039807 3.044593 3.048917 3.051700 3.051532 3.047692 3.040547 3.031900 3.023120 3.012866 3.000731 2.986065 2.959241 2.922924 2.918275 2.942313 2.885564 2.907339 2.963323 3.006238 3.031171 3.044103 3.097016 3.067712 3.063917 3.078118 3.088801 3.092158 3.091110 3.086729 3.081056 3.075197 3.070115 3.068005 3.072635 3.077051 3.038288 3.033473 3.040108 3.044334 3.043496 3.039598 3.033075 3.024061 3.013733 3.003357 2.992715 2.981739 2.971011 2.968170 2.995858 3.064437 3.072729 3.073906 3.081539 3.091748 3.102915 3.113881 3.124152 3.134653 3.145146 3.155417 3.165418 3.176304 3.193138 3.238659 3.161589 3.129208 3.124331 3.101408 3.073490 3.076429 3.093470 3.133851 3.169926 3.201292 3.229693 3.254943 3.277182 3.294026 3.302770 3.261516 3.238147 3.264475 3.279612 3.227428 3.280603 3.286314 3.306757 3.266587 3.244960 3.256692 3.180841 3.166406 3.211774 3.280331 3.301464 3.259726 3.258707 3.355646 3.298996 3.379916 3.399597 3.360615 3.328254 3.312466 3.309374 3.404862 3.445875 3.448422 3.454058 3.445463 3.457905 3.498828 3.432219 3.420128 3.417527 3.403491 3.390240 3.402479 3.438061 3.450550 3.408420 3.315582 3.309948 3.303679 3.314556 3.399035 3.467734 3.470337 3.473013 3.420557 3.358684 3.381403 3.443180 3.377960 3.381209 3.434347 3.448619 3.439205 3.431718 3.424376 3.410405 3.451551 3.462361 3.443268 3.455293 3.505559 3.563693 3.590595 3.552251 3.546324 3.530994 3.514311 3.508977 3.511111 3.499635 3.473182 3.425487 3.380372 3.371657 3.383155 3.397532 3.412541 3.428328 3.443282 3.457579 3.471100 3.483778 3.495130 3.504235 3.509809
2.987622 2.997953 3.054466 3.098537 3.111037 3.087090 3.056829 3.041001 3.033093 3.032953 3.043346 3.058204 3.075035 3.103472 3.135854 3.113754 2.944727 3.004360 2.983336 2.993019 3.016742 3.022832 3.017131 2.994998 3.000130 3.041601 3.061398 3.067718 3.079742 3.091133 3.075364 3.053654 3.032284 3.011299 2.986966 2.978532 2.991140 2.987911 2.988786 2.994370 3.003347 3.029099 3.009703 2.933925 2.918976 2.930478 2.935809 2.927402 2.914060 2.901139 2.889544 2.880004 2.873205 2.869035 2.866747 2.866641 2.869776 2.877741 2.891134 2.907140 2.950458 2.948595 2.936914 2.932722 2.934463 2.937054 2.947107 2.966878 2.998620 3.047062 3.112417 3.153872 3.147166 3.158705 3.169188 3.182346 3.194289 3.203437 3.212125 3.222370 3.231403 3.233335 3.164886 3.198269 3.313272 3.396175 3.407055 3.470292 3.500728 3.463588 3.405318 3.419960 3.452652 3.426308 3.390892 3.402124 3.331253 3.385948 3.352312 3.286205 3.262723 3.144821 2.980618 3.023972 3.100951 3.207403 3.256384 3.214459 3.150845 3.022737 3.077177 3.091574 3.077415 3.068880 3.080160 3.104494 3.128969 3.143116 3.153836 3.085104 3.094975 3.129871 3.030880 3.108505 3.183877 3.276167 3.343460 3.365865 3.352346 3.326520 3.299077 3.274087 3.250840 3.228911 3.207445 3.185915 3.164620 3.144623 3.125713 3.131114 3.077993 3.007597 3.023885 3.131001 3.174890 3.205503 3.225041 3.229890 3.196987 3.172592 3.164153 3.114515 3.132373 3.047241 2.968977 2.925560 2.930922 2.966486 2.998159 3.016032 3.020118 3.021264 3.021307 3.019654 3.015665 3.009683 3.002807 2.996406 2.988843 2.978643 2.964241 2.949376 2.928301 2.866857 2.865228 2.887578 2.913990 3.004963 3.112009 3.121219 3.073870 3.067214 3.020186 3.039747 3.079101 3.102415 3.112471 3.113534 3.109617 3.104013 3.099034 3.096009 3.113585 3.141022 3.112709 3.038318 3.044577 3.049020 3.045865 3.039781 3.031680 3.021854 3.010354 2.997358 2.983646 2.969933 2.955242 2.937681 2.916558 2.898060 2.973038 3.023583 3.050746 3.069307 3.086205 3.101079 3.114404 3.126229 3.137956 3.150363 3.163553 3.176894 3.190310 3.207351 3.253336 3.183861 3.156719 3.133889 3.096576 3.078884 3.064195 3.088119 3.085315 3.127899 3.175248 3.203864 3.229062 3.257519 3.292871 3.286217 3.149672 3.137982 3.183331 3.137013 3.163319 3.195697 3.242916 3.336134 3.310258 3.276854 3.289526 3.180093 3.215743 3.242006 3.264357 3.215641 3.211411 3.274732 3.255374 3.248811 3.299130 3.273036 3.326955 3.393304 3.399320 3.408646 3.456542 3.382432 3.428014 3.477944 3.454252 3.415786 3.453247 3.474772 3.574285 3.547158 3.448204 3.427456 3.515229 3.570068 3.437335 3.424883 3.460721 3.427024 3.380322 3.381053 3.402246 3.389513 3.370056 3.405827 3.420450 3.453265 3.433107 3.352659 3.393638 3.485874 3.503732 3.503505 3.496400 3.491090 3.486170 3.467391 3.475283 3.493865 3.465683 3.485080 3.528610 3.557473 3.590048 3.552873 3.520494 3.513226 3.504032 3.514500 3.550228 3.547416 3.364529 3.366490 3.363227 3.366169 3.377327 3.390941 3.405563 3.420850 3.435877 3.450555 3.464683 3.478060 3.490041 3.498899 3.500625
2.905704 2.930309 2.936138 3.056588 3.087914 3.064302 3.037401 3.025882 3.023408 3.029587 3.043040 3.063118 3.087256 3.110886 3.121166 3.104343 3.071137 3.037192 3.024235 3.018860 3.018137 3.020365 3.017893 3.008171 2.971048 2.981482 3.021329 3.101260 3.154269 3.102358 3.074591 3.052399 3.033574 3.018152 3.006276 2.995522 2.988518 2.999931 3.026332 3.031575 3.031637 3.037661 3.028495 3.011945 3.053621 2.990937 2.976834 2.959753 2.937117 2.915870 2.898552 2.884225 2.873923 2.865397 2.857833 2.851367 2.847831 2.851280 2.858394 2.828578 2.878771 2.902405 2.895525 2.891795 2.900930 2.907499 2.928951 2.961383 3.004144 3.058146 3.107790 3.149365 3.182578 3.160382 3.153958 3.152785 3.153182 3.164634 3.188408 3.212855 3.231173 3.241214 3.212530 3.210691 3.339687 3.464231 3.393715 3.297883 3.389052 3.338136 3.369646 3.406716 3.384149 3.365232 3.431669 3.335643 3.366639 3.370676 3.329673 3.268783 3.214937 3.185849 3.090225 3.171503 3.263963 3.308419 3.293884 3.248721 3.205791 3.116547 3.082521 3.080964 2.982678 2.929130 2.982043 2.970883 3.000366 3.015671 3.086172 3.097964 3.100560 3.088696 3.017364 3.135915 3.180902 3.234945 3.294838 3.324976 3.321201 3.310330 3.292682 3.270492 3.247575 3.224926 3.202148 3.178464 3.154256 3.132322 3.115464 3.113526 3.133499 3.071901 3.019467 3.098434 3.155268 3.196581 3.219606 3.223600 3.213977 3.191114 3.150379 3.091884 3.032986 3.043649 2.984688 2.943699 2.936453 2.942232 2.976558 3.000168 3.001365 2.998309 2.994651 2.990026 2.984224 2.978240 2.972833 2.968256 2.963635 2.947820 2.939888 2.943673 2.937497 2.940475 2.894815 2.908802 2.960646 3.074648 3.155267 3.104264 3.098808 3.061378 3.142597 3.137338 3.115512 3.127010 3.130574 3.126929 3.120074 3.112001 3.103116 3.107494 3.117511 3.103244 3.060884 3.069087 3.069742 3.064956 3.057495 3.048445 3.037932 3.025858 3.012036 2.996550 2.980138 2.964301 2.950072 2.932741 2.906394 2.894288 2.981411 3.033670 3.062169 3.083750 3.102022 3.117527 3.130732 3.142028 3.152359 3.163321 3.175759 3.189836 3.204890 3.216936 3.202885 3.240278 3.234575 3.146782 3.069192 3.108727 3.139061 3.111890 3.085601 3.095841 3.133073 3.162546 3.170982 3.207501 3.277729 3.177921 3.132755 3.156986 3.135560 3.073279 3.161887 3.179210 3.260550 3.265941 3.296207 3.326967 3.311571 3.362917 3.324505 3.256748 3.240510 3.229786 3.208683 3.197926 3.215621 3.225792 3.255702 3.325461 3.373779 3.380075 3.370709 3.376162 3.424981 3.376553 3.413401 3.439536 3.425991 3.421296 3.464534 3.504054 3.393642 3.456621 3.459226 3.472981 3.560698 3.605273 3.505211 3.428243 3.416223 3.403331 3.409086 3.420657 3.392408 3.308654 3.288640 3.262685 3.350410 3.346471 3.316976 3.405713 3.404876 3.488680 3.479417 3.482402 3.491392 3.512011 3.529583 3.478761 3.474304 3.493542 3.521758 3.534518 3.498188 3.454711 3.498696 3.462086 3.425325 3.432183 3.485616 3.518785 3.522721 3.531714 3.337782 3.332717 3.348184 3.359297 3.369992 3.384279 3.398851 3.413874 3.429226 3.444486 3.459443 3.474048 3.487937 3.499259 3.503217
2.760974 2.867601 2.931663 2.910901 2.988402 3.026132 3.001928 2.991949 2.996354 3.010593 3.032804 3.063227 3.087533 3.099775 3.102811 3.099339 3.088664 3.055622 3.030091 3.018572 3.016947 3.018687 3.020591 3.020163 2.982339 2.933168 2.969821 3.059674 3.102152 3.069592 3.051815 3.038173 3.028061 3.021207 3.017351 3.016529 3.018719 3.023544 3.036006 3.054135 3.083920 3.117622 3.130375 3.115351 3.110091 3.058129 3.033202 3.036817 3.017060 2.969954 2.932817 2.909091 2.891927 2.875838 2.859523 2.844251 2.827513 2.831945 2.892942 2.839428 2.870264 2.862454 2.904274 2.937132 2.898305 2.880191 2.886834 2.945375 3.003190 3.058620 3.093493 3.117839 3.162063 3.125434 3.098618 3.090014 3.103150 3.135590 3.175787 3.211127 3.242155 3.265816 3.281057 3.312201 3.422572 3.497579 3.385791 3.318021 3.377171 3.347194 3.327460 3.355033 3.396961 3.410765 3.403624 3.301868 3.321144 3.352338 3.334821 3.262489 3.183053 3.163117 3.135393 3.261444 3.301556 3.288178 3.268251 3.240633 3.204429 3.156295 3.069189 3.036247 3.037427 3.036090 3.014878 2.978377 2.897245 3.003731 3.031489 3.001864 3.025126 3.111806 3.151832 3.116428 3.142092 3.196259 3.248399 3.280387 3.290302 3.285855 3.272317 3.253673 3.233580 3.212045 3.188766 3.163280 3.134044 3.102246 3.145614 3.087582 3.128691 3.140826 3.096309 3.113729 3.173136 3.215836 3.226542 3.218548 3.199903 3.173451 3.140174 3.101438 3.054907 3.021116 2.974823 2.945125 2.952236 2.972757 2.959200 2.987133 2.990530 2.977705 2.964366 2.957271 2.953973 2.950503 2.946906 2.943776 2.945387 2.920329 2.908630 2.913931 2.871140 2.849620 2.900730 2.941075 3.092363 3.198721 3.145629 3.047668 3.051117 3.035216 3.086718 3.172211 3.224044 3.218832 3.187336 3.164452 3.143872 3.122801 3.092483 3.076238 3.052674 2.997491 2.985564 3.081169 3.097741 3.087565 3.073652 3.060562 3.047796 3.034216 3.019022 3.001565 2.981933 2.962081 2.947217 2.934775 2.913620 2.915470 2.994557 3.047466 3.077638 3.099467 3.116946 3.131616 3.143940 3.154474 3.164121 3.174310 3.186263 3.203680 3.218773 3.173622 3.238902 3.240955 3.232747 3.163653 3.121730 3.262874 3.230060 3.151148 3.110011 3.085275 3.090415 3.099731 3.074501 3.115622 3.150673 3.054999 3.054998 3.078636 3.097463 3.137158 3.061358 3.201185 3.211771 3.188780 3.238239 3.316092 3.343328 3.373123 3.402493 3.369589 3.284313 3.292388 3.320311 3.244339 3.194122 3.228025 3.243111 3.226434 3.246218 3.264954 3.268159 3.352683 3.308367 3.312799 3.303712 3.354814 3.435507 3.477277 3.498127 3.603343 3.479662 3.498838 3.500662 3.479234 3.519081 3.593678 3.394889 3.332612 3.470638 3.610153 3.589905 3.497016 3.472043 3.280539 3.245778 3.204079 3.229288 3.327092 3.371076 3.305618 3.375277 3.436369 3.447516 3.464698 3.466165 3.467766 3.505099 3.533410 3.472216 3.454913 3.474277 3.474329 3.442463 3.426914 3.468230 3.439891 3.471759 3.471138 3.436729 3.398952 3.362924 3.299214 3.269707 3.296545 3.312875 3.333648 3.358326 3.376821 3.393827 3.407891 3.423144 3.438469 3.454177 3.470782 3.488420 3.509136 3.540850
3.037041 2.964155 2.905249 2.814128 2.832927 2.881608 2.904540 2.923215 2.938873 2.955294 2.985916 3.033116 3.061936 3.067206 3.072091 3.091591 3.107609 3.065655 3.026427 3.009481 3.009822 3.016498 3.022654 3.016450 3.028691 2.962939 2.991920 3.050753 3.046971 3.039770 3.032539 3.027274 3.023870 3.022259 3.022901 3.026587 3.034211 3.046785 3.064547 3.092289 3.135815 3.188771 3.247156 3.261420 3.078153 2.984647 2.997550 3.084524 3.100843 3.023867 2.947490 2.898241 2.886892 2.872154 2.855152 2.839286 2.806311 2.795340 2.927497 2.896296 2.895251 2.868008 2.878860 2.930708 2.947648 2.870877 2.912698 2.958721 3.015692 3.072887 3.074029 3.032733 3.052381 3.004894 2.982416 3.007275 3.061293 3.120800 3.174505 3.220936 3.257166 3.290377 3.337044 3.341099 3.266146 3.218227 3.341502 3.383553 3.313456 3.368288 3.427874 3.344226 3.299003 3.499282 3.365566 3.192589 3.206043 3.203275 3.166717 3.144969 3.142117 3.117671 3.233590 3.280420 3.267797 3.242174 3.222220 3.202978 3.176938 3.076313 3.034230 3.053421 3.065404 3.074803 3.078481 2.992456 3.017595 3.034331 2.983363 2.969876 3.015336 3.063222 3.074700 3.114443 3.117004 3.140007 3.186523 3.232586 3.258389 3.266552 3.255079 3.240761 3.223891 3.203589 3.179400 3.151471 3.120428 3.088947 3.086998 3.112867 3.121939 3.084964 3.047160 3.086913 3.214439 3.237077 3.227050 3.209874 3.189999 3.166508 3.139691 3.108124 3.071741 3.032538 2.993561 2.971750 2.979537 3.001823 2.992795 2.957273 2.957878 2.931770 2.921162 2.930456 2.931317 2.934396 2.932687 2.921397 2.917425 2.909409 2.915646 2.917047 2.852909 2.891629 2.936320 3.029548 3.097994 3.142857 3.150011 3.076632 3.101691 3.005660 3.064209 3.152749 3.223864 3.274717 3.278225 3.225582 3.179748 3.128265 3.054462 3.001522 2.988638 2.981319 2.965142 3.070437 3.114506 3.106820 3.086171 3.071772 3.058201 3.044513 3.029546 3.011848 2.989858 2.964777 2.945740 2.945335 2.966468 2.936833 3.010951 3.069419 3.101471 3.121416 3.135978 3.147133 3.156210 3.163916 3.171959 3.181738 3.193837 3.211084 3.235242 3.251351 3.261699 3.252820 3.243272 3.224075 3.246551 3.348242 3.174712 3.104331 3.061236 3.048820 3.093642 3.148465 3.136726 3.139517 3.150429 3.057600 3.011931 3.045321 3.080008 3.060282 3.115815 3.161719 3.129874 3.188078 3.260657 3.285128 3.304692 3.330944 3.357141 3.383615 3.365267 3.367855 3.344192 3.241584 3.200476 3.233625 3.221833 3.218919 3.200400 3.200167 3.260157 3.303133 3.339340 3.251031 3.325447 3.401342 3.390642 3.363418 3.404739 3.565708 3.584314 3.411215 3.385435 3.465353 3.510139 3.567022 3.456645 3.459266 3.556143 3.591245 3.591644 3.583972 3.505774 3.431418 3.330146 3.314913 3.384238 3.414920 3.354582 3.297863 3.389345 3.335189 3.391110 3.480992 3.469296 3.409095 3.452032 3.508342 3.339924 3.408404 3.477578 3.488115 3.480751 3.494168 3.519771 3.475477 3.477354 3.507307 3.488710 3.397522 3.297003 3.282476 3.248259 3.270838 3.303922 3.344373 3.363983 3.358928 3.384476 3.408234 3.419530 3.431671 3.446332 3.462420 3.486017 3.530541 3.592924
3.096736 3.031726 2.943821 2.871227 2.845573 2.818087 2.808925 2.850340 2.833673 2.868582 2.897452 2.934126 2.972683 3.008276 3.039377 3.057271 3.072551 3.041685 2.999355 2.985715 2.998360 3.015464 3.040523 3.064176 2.912512 2.932436 2.996835 3.019370 3.024285 3.024134 3.022969 3.022433 3.022853 3.025202 3.030479 3.039487 3.052670 3.069680 3.087016 3.105252 3.126782 3.149851 3.167512 3.165452 3.123983 3.036706 3.005983 3.015365 3.035045 3.031423 2.977434 2.871375 2.934483 2.920383 2.888581 2.862204 2.850448 2.859939 2.858422 2.934070 2.889971 2.862416 2.868151 2.908466 2.952598 2.901829 2.969710 2.976626 2.998833 3.050563 3.036361 2.922822 2.876803 2.878919 2.927958 3.004026 3.034336 3.079893 3.188027 3.247412 3.262554 3.305776 3.353210 3.357551 3.286486 3.220184 3.287584 3.331977 3.326956 3.400845 3.400245 3.384787 3.420512 3.410079 3.323934 3.311440 3.171442 3.147514 3.200289 3.228254 3.220644 3.149675 3.216138 3.228668 3.215136 3.191876 3.164259 3.136702 3.107471 3.024341 2.978186 3.012089 3.030113 3.010691 2.999248 2.974255 3.013812 2.995269 2.950144 2.926075 2.951877 3.006561 3.029977 3.028105 3.070373 3.105638 3.177738 3.204014 3.173558 3.267989 3.258140 3.241998 3.224715 3.204790 3.181964 3.157618 3.133186 3.110140 3.028990 3.061214 3.039632 3.011933 3.050507 3.106616 3.200494 3.216277 3.204981 3.189752 3.174900 3.158392 3.139466 3.117085 3.090196 3.056778 3.017678 3.020514 3.071219 3.111820 3.101356 3.105428 3.069309 2.989733 2.979573 3.003082 2.968087 2.984895 2.969707 2.920421 2.922334 2.948861 2.980706 2.991778 2.925105 2.921606 3.066142 3.120775 3.102351 3.078778 3.083577 3.101245 3.101317 3.040633 3.024779 3.068536 3.145183 3.232415 3.314616 3.258497 3.127704 3.048657 3.013039 3.001683 2.991798 2.968178 2.963583 3.028831 3.093251 3.105557 3.090728 3.078469 3.066890 3.055134 3.042287 3.027251 3.005307 2.970455 2.915569 2.877868 2.958777 2.907394 3.031322 3.115710 3.141131 3.151473 3.159826 3.165001 3.167769 3.170017 3.173672 3.180748 3.193905 3.206293 3.205348 3.252414 3.253964 3.253193 3.253864 3.254966 3.260094 3.253555 3.134540 3.089866 3.063485 3.075041 3.091399 3.091548 3.104621 3.080338 3.110073 3.071698 3.051435 3.073887 3.090762 3.081099 3.153275 3.125488 3.112259 3.163393 3.219737 3.248289 3.275319 3.289076 3.303515 3.283669 3.323927 3.356114 3.308583 3.235989 3.305176 3.346639 3.332515 3.262953 3.191334 3.207858 3.292996 3.252138 3.296876 3.276865 3.321722 3.327239 3.317346 3.353128 3.350961 3.434384 3.468099 3.372142 3.393286 3.531753 3.616659 3.568537 3.470211 3.515986 3.525760 3.470231 3.421644 3.429465 3.458847 3.510077 3.557637 3.542847 3.537053 3.530187 3.463834 3.366763 3.445567 3.400869 3.413390 3.454509 3.474445 3.458550 3.437069 3.486019 3.408169 3.401115 3.453045 3.496274 3.510039 3.528123 3.533572 3.494426 3.446437 3.469879 3.476969 3.402855 3.318189 3.349222 3.316731 3.308691 3.324325 3.377269 3.389036 3.302377 3.244219 3.374565 3.403417 3.412843 3.424016 3.439002 3.476395 3.551944 3.508225
3.044204 3.063589 2.963068 2.928744 2.945369 2.897192 2.840358 2.912396 2.828444 2.863407 2.870029 2.875192 2.871385 2.899571 2.980330 2.949055 2.984834 2.985091 2.959661 2.947537 2.957791 2.981827 3.024045 3.002624 2.902429 2.931732 2.986156 3.003659 3.009548 3.012538 3.015062 3.017320 3.020900 3.027011 3.036315 3.048541 3.062054 3.073990 3.084987 3.095850 3.107429 3.119045 3.126564 3.124032 3.111256 3.079117 3.037289 3.010159 2.976170 2.944650 2.958639 2.979329 3.039044 2.986783 2.915873 2.878571 2.894402 2.922493 2.816581 2.860236 2.887561 2.891218 2.868804 2.859370 2.909536 2.979677 2.955509 3.000001 3.054880 3.035218 2.981862 2.969505 2.903629 2.940539 2.919080 3.016975 3.120685 3.180035 3.236522 3.292904 3.347569 3.362977 3.393979 3.437719 3.423964 3.367164 3.401309 3.321053 3.325651 3.364635 3.387442 3.392253 3.363317 3.269787 3.284214 3.267724 3.270247 3.262490 3.218009 3.149895 3.104961 3.143828 3.169786 3.175335 3.163169 3.137376 3.101384 3.057238 3.005171 2.932791 2.928490 2.953132 2.947542 2.949609 3.015620 3.031348 3.022143 2.993427 2.968676 2.950016 2.933914 2.933959 2.981757 3.031133 3.039204 3.060077 3.082416 3.107665 3.155827 3.187774 3.198889 3.224192 3.224980 3.211732 3.198973 3.190955 3.183474 3.154778 3.037046 3.009959 3.031380 3.061775 3.106299 3.173742 3.139721 3.166446 3.173538 3.168872 3.161139 3.151697 3.140958 3.128075 3.111583 3.087274 3.079441 3.120859 3.175815 3.179163 3.160852 3.144071 3.133599 3.101142 3.106176 3.126784 3.103245 3.109852 3.051567 3.019165 2.948693 2.939032 2.994892 3.025466 3.068602 3.093298 3.093355 3.136447 3.156122 3.131553 3.120861 3.165881 3.104059 3.045177 2.994242 3.056447 3.181182 3.260931 3.292476 3.215348 3.092744 3.050736 3.039546 3.024148 3.002721 2.975936 2.956610 3.032721 3.067353 3.078479 3.081358 3.077511 3.071231 3.063623 3.054681 3.044978 3.029149 2.973294 2.908300 2.904822 2.894001 2.861890 3.128282 3.205403 3.174692 3.182647 3.185176 3.180862 3.176052 3.171059 3.166589 3.163126 3.157411 3.157044 3.192684 3.212806 3.220445 3.222389 3.220386 3.215172 3.207066 3.196130 3.191699 3.145772 3.091134 3.056560 3.053425 3.070416 3.082247 3.104839 3.064020 3.032770 3.042964 3.038986 3.033862 3.122192 3.076534 3.049888 3.073225 3.120685 3.167430 3.206203 3.240199 3.257187 3.218738 3.288856 3.326626 3.325010 3.296622 3.247286 3.356176 3.225184 3.242005 3.236315 3.232970 3.267969 3.278736 3.198666 3.265385 3.281910 3.231786 3.241333 3.320978 3.375484 3.404044 3.442530 3.466180 3.454984 3.451519 3.507484 3.551865 3.401817 3.457987 3.464625 3.471080 3.445061 3.426704 3.458656 3.480101 3.398950 3.567889 3.601456 3.596940 3.559874 3.483074 3.480571 3.525706 3.465993 3.469881 3.473310 3.464082 3.438703 3.380267 3.395743 3.436990 3.436883 3.428107 3.418612 3.435009 3.478469 3.433698 3.462374 3.409698 3.451566 3.420498 3.335181 3.397552 3.417894 3.384457 3.379827 3.352162 3.341271 3.340814 3.299933 3.233618 3.243565 3.342175 3.379469 3.400593 3.441461 3.489035 3.537885 3.480138
3.071806 3.055628 3.086033 3.069800 3.088448 3.064812 2.964129 2.892414 2.921899 2.885371 2.820076 2.851801 2.893204 2.896420 2.928368 2.925409 2.936323 2.936225 2.934526 2.936304 2.942677 2.947269 2.942658 2.941458 2.923303 2.947849 2.980746 2.995483 3.001335 3.005524 3.009201 3.013143 3.019169 3.028062 3.039426 3.051350 3.061155 3.069704 3.077644 3.085172 3.092408 3.098826 3.101867 3.097305 3.084750 3.064927 3.034876 3.006741 2.997736 2.989821 2.950544 2.981715 2.964392 2.942033 2.920123 2.925848 2.959724 2.973177 2.919499 2.883103 2.920527 2.884637 2.843119 2.850041 2.854837 2.963224 3.030965 3.084310 3.035213 2.962214 2.927763 2.914397 2.970273 3.026728 3.087328 3.113687 3.118929 3.140465 3.205867 3.309478 3.309400 3.347109 3.387596 3.397505 3.388768 3.402469 3.428318 3.356696 3.252233 3.296951 3.298900 3.260743 3.262003 3.243061 3.343334 3.261969 3.277050 3.231122 3.131219 3.091482 3.115193 3.130985 3.142697 3.142279 3.126356 3.092518 3.040634 2.976541 2.918139 2.909254 2.896805 2.915245 2.959890 3.012151 3.052473 3.042722 3.022569 3.003011 2.984776 2.968754 2.956150 2.947420 2.944205 2.976737 2.972700 3.037523 3.003078 2.939783 3.034664 3.101641 3.200382 3.244150 3.250551 3.225919 3.203871 3.225914 3.260865 3.131334 3.083622 3.040907 3.083994 3.134698 3.106545 3.121484 3.126549 3.145943 3.154735 3.154796 3.150968 3.146187 3.142182 3.138829 3.132511 3.139050 3.145337 3.154774 3.166025 3.149086 3.138919 3.136729 3.136399 3.162922 3.197102 3.224509 3.244308 3.218504 3.121506 3.063548 2.940484 2.907031 2.980638 3.018677 3.075590 3.111093 3.081079 3.102578 3.133843 3.120538 3.085557 3.110736 3.115820 3.109361 3.040847 3.051364 3.134503 3.177168 3.173005 3.065861 3.117671 3.107132 3.042068 2.975808 2.948528 2.989679 3.020219 2.993562 3.012934 3.041971 3.058066 3.067293 3.070776 3.070504 3.068513 3.070938 3.085181 3.063910 2.993748 2.928503 2.878877 2.959743 3.151340 3.207961 3.202678 3.219712 3.200372 3.187725 3.178638 3.167911 3.151749 3.122954 3.100075 3.117734 3.167990 3.187306 3.194860 3.196128 3.193379 3.187867 3.180379 3.170673 3.157001 3.133943 3.101346 3.076064 3.066877 3.071728 3.087416 3.076782 3.048899 3.051729 3.036877 3.033375 3.078694 3.100783 3.020944 3.049574 3.054527 3.077401 3.122938 3.162886 3.190778 3.179383 3.178001 3.252705 3.277231 3.265352 3.281350 3.319138 3.344303 3.343394 3.264825 3.274254 3.335465 3.352261 3.326068 3.339757 3.263453 3.315335 3.240607 3.213342 3.301014 3.318720 3.336962 3.359520 3.422062 3.395538 3.378769 3.383190 3.347983 3.408027 3.502048 3.497926 3.498543 3.548700 3.492910 3.325387 3.489335 3.479332 3.524951 3.508905 3.504055 3.532582 3.565373 3.584206 3.547820 3.517028 3.463111 3.449382 3.469753 3.462801 3.408019 3.364834 3.287454 3.409280 3.414496 3.373161 3.423738 3.441072 3.357991 3.441626 3.405995 3.421766 3.462905 3.446886 3.405921 3.473884 3.476251 3.419488 3.382806 3.382019 3.395358 3.389109 3.311273 3.296340 3.362580 3.424105 3.483926 3.544492 3.585123 3.590168 3.547574
3.103181 3.155967 3.153435 3.104664 3.051873 3.069659 3.131481 3.094543 3.009529 2.871705 2.867972 2.952049 2.977728 2.906977 2.859766 2.873781 2.892630 2.894789 2.870918 2.897569 2.951348 2.920826 2.903059 2.859550 2.902943 2.952375 2.980285 2.992721 2.996935 3.001058 3.004597 3.009493 3.016948 3.027412 3.038875 3.048504 3.056261 3.063140 3.069100 3.074110 3.078309 3.081115 3.080525 3.073604 3.060552 3.042229 3.017341 2.990618 2.968528 2.953468 2.940705 2.922049 2.928330 2.939545 2.951315 2.963429 2.978108 2.995868 3.002124 2.993884 2.986505 2.896501 2.826342 2.843152 2.868054 2.922971 3.008878 2.974340 2.951738 2.966721 2.979629 2.984715 3.011123 3.057724 3.115608 3.171483 3.219173 3.249308 3.254227 3.250557 3.291546 3.191812 3.295034 3.370336 3.311419 3.276969 3.285897 3.385648 3.397272 3.304266 3.252997 3.249385 3.235888 3.298546 3.295606 3.218343 3.214560 3.142436 3.048983 3.055173 3.095400 3.116165 3.131284 3.131636 3.111937 3.075438 3.005830 2.882025 2.825678 2.947154 2.964348 2.965694 2.999141 3.041012 3.058684 3.046143 3.028991 3.010762 2.993088 2.976890 2.963276 2.954205 2.952578 2.957731 2.981848 3.018002 3.030285 3.003957 2.956425 2.945828 3.105746 3.196466 3.228290 3.155351 3.078799 3.143479 3.241275 3.169623 3.213972 3.189363 3.197000 3.204050 3.135153 3.128032 3.126901 3.133654 3.140450 3.143573 3.143006 3.141070 3.140609 3.143780 3.151078 3.161516 3.104845 3.085506 3.147076 3.135013 3.143683 3.153581 3.167958 3.189072 3.222024 3.254390 3.258399 3.234188 3.174937 3.030449 2.958238 2.965475 2.982939 2.989530 3.017250 3.168393 3.104443 3.021191 3.027407 3.074561 3.081976 3.123289 3.085146 3.119062 3.097973 3.068292 3.068298 3.063587 3.034702 3.013524 3.105127 3.109588 3.063918 2.998048 2.936529 2.995922 3.001091 2.940990 2.944489 2.991600 3.033493 3.049969 3.062508 3.069213 3.074536 3.078842 3.100493 3.099321 3.029899 2.925474 2.931615 2.972891 3.056997 3.150501 3.205296 3.202661 3.187419 3.178743 3.173402 3.167873 3.133859 3.113765 3.131177 3.147165 3.161023 3.170566 3.174781 3.174774 3.171742 3.166462 3.159150 3.149466 3.135747 3.116914 3.094692 3.080437 3.082190 3.096601 3.103125 3.069235 3.076776 3.030356 3.038212 3.085378 3.089679 3.133485 3.119205 3.076967 3.039215 3.038969 3.077454 3.135993 3.187052 3.203258 3.187495 3.244131 3.251345 3.241379 3.286278 3.325525 3.361400 3.368409 3.351152 3.362978 3.391712 3.403931 3.398786 3.394759 3.333941 3.348971 3.289827 3.220501 3.219100 3.258302 3.236669 3.287309 3.300473 3.352599 3.404056 3.397682 3.372669 3.432678 3.554834 3.455907 3.491604 3.548034 3.526945 3.537688 3.594476 3.656564 3.555261 3.541553 3.490268 3.447325 3.529885 3.531779 3.551324 3.528954 3.508379 3.563937 3.588952 3.493771 3.435279 3.450845 3.332340 3.388685 3.423734 3.388184 3.367066 3.384235 3.402067 3.426173 3.412595 3.469407 3.538846 3.526656 3.473804 3.501515 3.468076 3.430276 3.411304 3.406582 3.418504 3.441078 3.418635 3.426370 3.393985 3.480863 3.566664 3.564581 3.532825 3.434225 3.633451
3.090305 3.098060 3.115961 2.988742 2.949623 3.032558 3.107428 3.151880 3.116984 3.030528 2.994283 3.044643 3.020148 2.874366 2.842292 2.823977 2.796308 2.792401 2.823489 2.858106 2.867244 2.866146 2.840949 2.796319 2.871817 2.947081 2.983523 2.996477 2.995738 2.997427 3.000108 3.005219 3.013398 3.024198 3.034991 3.043033 3.049747 3.055454 3.059631 3.062771 3.065005 3.065324 3.061805 3.052857 3.039100 3.021139 2.998313 2.975531 2.957928 2.947518 2.942354 2.934193 2.930226 2.933550 2.939416 2.945315 2.951792 2.958637 2.963634 2.964817 2.929891 2.884234 2.851521 2.855380 2.914116 2.974714 2.936421 2.903527 2.920292 2.972279 3.023504 3.057877 3.088461 3.123968 3.166078 3.217315 3.261711 3.283186 3.283613 3.255915 3.309098 3.335622 3.403030 3.372122 3.260306 3.245357 3.256302 3.345651 3.331277 3.342764 3.384378 3.365875 3.256943 3.201180 3.150205 3.164107 3.243224 3.203540 3.082458 3.053530 3.078846 3.098797 3.117975 3.128072 3.110415 3.071200 3.011287 2.912279 2.873095 2.990012 3.054085 3.014684 3.010452 3.092023 3.072261 3.054545 3.036671 3.018594 3.000560 2.982843 2.966841 2.955226 2.949833 2.951359 2.965133 3.010981 3.046325 3.022318 2.966390 3.014506 3.022329 3.008330 3.020453 3.023422 3.030800 3.111950 3.215763 3.188564 3.185160 3.167258 3.129844 3.110253 3.127241 3.132116 3.131146 3.130034 3.130688 3.131894 3.132078 3.131072 3.130673 3.133854 3.136610 3.103872 3.064162 3.060112 3.095994 3.128392 3.151476 3.165569 3.180419 3.195880 3.207336 3.210151 3.202958 3.188917 3.164949 3.105917 3.084889 3.064445 3.011562 2.988862 3.036431 3.050928 3.025427 3.017311 3.039917 3.062846 3.053934 3.041589 3.060768 3.138099 3.111638 3.051377 3.030375 3.020710 3.024862 3.081772 3.121879 3.110456 3.088164 3.061269 3.012148 2.967428 2.969319 2.919346 2.885971 2.911510 2.978087 3.033459 3.034572 3.037017 3.034236 3.051874 3.038012 2.993992 2.967814 2.972684 2.980597 3.006442 3.059279 3.144414 3.160656 3.094704 3.107607 3.129634 3.151876 3.170797 3.181023 3.179892 3.167149 3.153203 3.152972 3.156112 3.157711 3.156759 3.153474 3.148188 3.140823 3.130842 3.117881 3.102050 3.083464 3.071326 3.085821 3.116245 3.069086 3.092170 3.037157 2.974226 2.990835 3.079316 3.141716 3.101923 3.130630 3.118850 3.101113 3.066284 3.046952 3.089448 3.163602 3.138861 3.181788 3.220242 3.229360 3.253521 3.312264 3.344917 3.413613 3.417805 3.403384 3.396457 3.402742 3.422025 3.444966 3.391191 3.409142 3.401368 3.382433 3.344132 3.311679 3.321559 3.273611 3.278966 3.226460 3.228842 3.320761 3.419255 3.419255 3.432767 3.422126 3.463269 3.531866 3.515000 3.480454 3.543289 3.435508 3.543024 3.589419 3.506267 3.446200 3.479077 3.506942 3.518950 3.601305 3.591213 3.588471 3.577263 3.513626 3.447343 3.513485 3.409470 3.473610 3.481722 3.431314 3.413571 3.437133 3.378851 3.459831 3.438469 3.449831 3.528847 3.561807 3.501826 3.497840 3.557733 3.456283 3.447863 3.465982 3.486675 3.487604 3.422524 3.451443 3.483964 3.529190 3.561285 3.583403 3.554783 3.407086 3.324644 3.642833
3.030814 3.049655 3.077904 3.009525 2.979754 3.053447 3.155409 3.212189 3.149632 3.150149 3.069722 3.043263 3.014619 2.902557 2.875504 2.869875 2.820344 2.833293 2.850178 2.829034 2.799671 2.802333 2.870245 2.800552 2.837947 2.953700 3.026065 3.010472 2.997331 2.993207 2.994585 2.999419 3.007739 3.018495 3.028824 3.036118 3.042329 3.046893 3.049872 3.051942 3.052747 3.050831 3.044674 3.034211 3.019862 3.001623 2.981960 2.964611 2.951891 2.943928 2.939227 2.933075 2.927697 2.926948 2.928995 2.931630 2.933959 2.935157 2.933400 2.928068 2.910687 2.871963 2.868084 2.910126 2.897428 3.026128 2.941476 2.929204 2.994601 3.066838 3.108082 3.123097 3.148144 3.179377 3.214681 3.256362 3.268277 3.262767 3.302273 3.328311 3.338964 3.287521 3.307851 3.355166 3.343796 3.286655 3.276554 3.222890 3.360986 3.416548 3.337729 3.258990 3.266117 3.185119 3.097757 3.059939 3.128103 3.168942 3.129247 3.081530 3.072364 3.081450 3.093130 3.099874 3.101085 3.069865 2.988110 2.914329 2.888688 2.928457 2.995205 3.034409 3.069529 3.108627 3.085887 3.067841 3.049652 3.031265 3.012673 2.993751 2.974720 2.956738 2.942151 2.936163 2.943106 2.975502 2.991913 2.981562 2.993846 2.949301 2.914859 2.931181 2.950639 2.931762 2.925109 3.008145 3.087318 3.119221 3.174537 3.098698 3.039812 3.088420 3.130239 3.138064 3.136497 3.133229 3.129653 3.126058 3.122107 3.117543 3.113043 3.110036 3.078910 3.078209 3.069579 3.065619 3.112945 3.168943 3.177049 3.178297 3.181357 3.184953 3.185624 3.183168 3.179907 3.173151 3.162957 3.150404 3.144858 3.124843 3.085447 3.071475 3.081115 3.008591 3.036216 3.061299 3.059870 3.060741 3.054797 3.049088 3.046666 3.053705 3.062603 3.028830 2.961565 2.953643 3.051203 3.133609 3.097420 3.069244 3.054442 3.022257 2.979482 2.965822 2.942497 2.922396 2.907480 2.892595 2.931433 3.033790 3.004026 2.987769 2.984743 2.946034 2.954312 2.997572 2.994065 2.998521 3.022844 3.033404 3.114767 3.127522 3.074294 3.046744 3.009713 3.061376 3.101007 3.150425 3.155676 3.138958 3.145366 3.147617 3.143626 3.142545 3.141659 3.139652 3.136079 3.130934 3.124141 3.115050 3.102986 3.087952 3.065235 3.055691 3.071706 3.090012 3.080435 3.096042 3.113693 3.065666 3.037828 3.081978 3.122291 3.075567 3.078976 3.132546 3.159569 3.143159 3.101118 3.084289 3.171696 3.131100 3.157090 3.230278 3.258655 3.252425 3.295741 3.380319 3.459304 3.439304 3.404246 3.385261 3.386423 3.404500 3.422775 3.352327 3.348015 3.346889 3.307949 3.302035 3.346808 3.325104 3.409390 3.307740 3.314892 3.257771 3.227327 3.326123 3.382145 3.347863 3.347795 3.476912 3.533731 3.473605 3.425574 3.508568 3.548787 3.504997 3.524491 3.373740 3.302496 3.445719 3.582840 3.550603 3.542264 3.556243 3.536171 3.484856 3.482333 3.565437 3.563154 3.517813 3.460336 3.457809 3.406690 3.365541 3.441431 3.451590 3.354156 3.356160 3.393358 3.475134 3.554161 3.549150 3.465262 3.482364 3.445278 3.445508 3.483669 3.521281 3.534214 3.545274 3.554299 3.553542 3.590176 3.626271 3.609207 3.524152 3.456277 3.547082 3.732558
2.751640 2.926963 3.003873 2.956346 2.983580 3.064372 3.071368 3.208860 3.157664 3.124648 3.107223 3.139593 3.135797 3.025971 2.990415 2.949666 2.890894 2.929901 2.894760 2.817126 2.795184 2.731058 2.912064 2.920109 2.876686 2.928133 3.004267 3.008549 3.010396 2.982290 2.985918 2.991156 2.998927 3.009981 3.020791 3.028045 3.034372 3.038298 3.040925 3.042297 3.041322 3.036882 3.028692 3.017067 3.001716 2.984681 2.968449 2.954899 2.944926 2.938314 2.933759 2.928156 2.923174 2.920775 2.920505 2.920976 2.921026 2.919972 2.917344 2.912116 2.905372 2.892782 2.887524 2.913770 2.976803 2.985261 3.043671 3.032488 3.007896 3.063510 3.166149 3.166573 3.187588 3.219243 3.252128 3.232716 3.218029 3.261492 3.283766 3.279488 3.363625 3.303971 3.317450 3.354454 3.315403 3.316617 3.293656 3.248861 3.335387 3.355110 3.276614 3.179293 3.120876 3.086725 2.981653 2.947089 2.998494 3.049393 3.059894 3.068694 3.068078 3.066904 3.067178 3.069975 3.090815 3.072046 2.977213 2.972244 3.007433 3.031149 3.020069 3.072500 3.140212 3.120987 3.103127 3.084980 3.066089 3.047007 3.027845 3.008397 2.988337 2.967210 2.943593 2.916644 2.914368 2.932439 2.933799 2.933626 2.989379 2.891031 2.886984 2.874309 2.888090 2.947378 2.989951 2.951506 3.017947 3.056451 3.102813 3.070371 3.083808 3.165540 3.148606 3.138898 3.141648 3.139294 3.133524 3.125874 3.116411 3.105584 3.091814 3.056278 3.086430 3.078341 3.078252 3.127308 3.183982 3.211912 3.228741 3.178499 3.161334 3.166387 3.168898 3.169667 3.167895 3.163917 3.161676 3.160055 3.164746 3.130539 3.064494 3.112045 3.154339 3.168945 3.182906 3.169192 3.138193 3.112901 3.091193 3.072671 3.057584 3.048374 3.050075 3.034812 2.978794 2.918090 3.026352 3.154874 3.137746 3.093570 3.069135 3.028759 2.961691 2.958875 2.960774 2.948623 2.909799 2.902401 2.954377 3.001516 2.957727 2.876834 2.935283 2.979379 2.985511 2.998541 3.043342 3.048470 2.998914 3.037772 3.118420 3.147288 3.108835 3.051525 3.008962 3.037258 3.052549 3.052722 3.032270 3.043667 3.109813 3.137132 3.133106 3.129407 3.126050 3.122651 3.118826 3.114295 3.108912 3.102262 3.092908 3.077055 3.060499 3.066932 3.091428 3.093484 3.086422 3.078436 3.072964 3.062393 3.059596 3.066943 3.073134 3.095585 3.118803 3.133339 3.140042 3.137184 3.135978 3.156528 3.191526 3.177890 3.190728 3.215994 3.203645 3.184307 3.229208 3.297670 3.359499 3.365949 3.350031 3.333504 3.334466 3.347041 3.317052 3.283990 3.262285 3.239011 3.251355 3.298297 3.334142 3.336614 3.312903 3.206836 3.297012 3.348799 3.331580 3.314433 3.218929 3.292244 3.294251 3.317384 3.378478 3.429399 3.466021 3.539131 3.519080 3.523978 3.532075 3.547651 3.537478 3.531421 3.588699 3.540102 3.517610 3.590559 3.607163 3.543908 3.538546 3.684421 3.697502 3.545163 3.454715 3.471072 3.477961 3.455320 3.471461 3.446093 3.363181 3.457319 3.478404 3.469623 3.489853 3.505661 3.502264 3.562951 3.519088 3.481604 3.527089 3.569645 3.540263 3.590491 3.561052 3.631532 3.602029 3.609483 3.595407 3.469760 3.404015 3.489089 3.600496
2.893590 2.938426 2.919236 2.928103 2.947238 2.953153 2.986506 3.070249 3.025694 3.136672 3.110865 3.062113 3.065859 3.033446 3.005802 2.977709 2.888323 2.934668 2.975498 2.943403 2.891268 2.791685 2.893903 2.887522 2.852118 2.864756 2.930374 3.000252 3.020445 3.058119 2.987251 2.971797 2.984766 2.997514 3.011156 3.019989 3.027718 3.031750 3.033414 3.032801 3.029370 3.022754 3.013121 3.000493 2.984594 2.969185 2.955738 2.944964 2.937078 2.931607 2.926995 2.921715 2.917247 2.914397 2.912858 2.911793 2.910450 2.908460 2.905591 2.901734 2.898273 2.893900 2.889375 2.896182 2.937486 2.952975 3.007822 2.991369 3.019119 3.093396 3.123577 3.165957 3.202195 3.241000 3.294320 3.231083 3.208759 3.360709 3.344830 3.277059 3.400135 3.343540 3.273962 3.249533 3.247395 3.324646 3.306062 3.290540 3.323244 3.346800 3.248413 3.096387 3.127517 3.068959 2.984309 3.039669 3.063853 3.043227 3.039922 3.052591 3.074718 3.082409 3.070784 3.053093 3.046977 3.032417 2.986782 3.011565 3.047518 3.080842 3.158713 3.192273 3.162471 3.143034 3.123064 3.103616 3.084175 3.064652 3.045177 3.025702 3.005858 2.984953 2.961738 2.927597 2.910720 2.917599 2.942334 2.968334 2.967869 2.897118 2.969957 2.966145 2.918981 2.912866 2.955210 2.961050 2.980236 3.008300 2.979143 2.969709 3.008871 3.065111 3.106391 3.080148 3.158247 3.153941 3.137380 3.129146 3.112653 3.092176 3.073194 3.114993 3.078179 3.056068 3.065252 3.091047 3.147104 3.213748 3.206417 3.178246 3.166876 3.168003 3.170312 3.171573 3.170635 3.166021 3.160259 3.164605 3.180540 3.182269 3.192117 3.317141 3.423215 3.407150 3.322441 3.245785 3.197676 3.159319 3.126899 3.099066 3.075847 3.057076 3.041531 3.032607 3.030358 3.035467 3.058099 3.115672 3.073759 3.022089 3.021896 3.020066 2.923741 2.923177 2.886300 2.866474 2.845407 2.847126 2.903057 2.981639 2.918188 2.961030 2.958902 2.974830 2.981163 2.973464 2.995171 2.995442 3.019652 3.075203 3.105257 3.091285 3.055140 3.013185 2.953918 3.028836 3.043526 3.047081 3.048411 3.053672 3.077316 3.116280 3.121740 3.115617 3.109249 3.104574 3.100750 3.097423 3.094342 3.091415 3.088282 3.071725 3.075453 3.095206 3.102260 3.093340 3.090561 3.087165 3.081965 3.075241 3.060291 3.034500 3.014765 3.051916 3.055556 3.103436 3.150029 3.177253 3.197875 3.220032 3.232737 3.246461 3.257901 3.281368 3.276214 3.240755 3.223128 3.192309 3.204764 3.257229 3.259673 3.225626 3.245725 3.339267 3.315387 3.253897 3.289905 3.268046 3.253366 3.283966 3.308832 3.301593 3.288898 3.285336 3.317743 3.306720 3.287186 3.309778 3.266233 3.296405 3.304579 3.292686 3.284952 3.318269 3.402227 3.483320 3.419300 3.507634 3.493940 3.456878 3.451306 3.476435 3.538264 3.540396 3.441016 3.504274 3.554938 3.550372 3.556401 3.584072 3.555495 3.525563 3.550344 3.501851 3.418666 3.376568 3.368585 3.418100 3.371183 3.508013 3.494412 3.442056 3.471714 3.496535 3.481346 3.530309 3.498321 3.479079 3.518152 3.570706 3.597911 3.628761 3.614421 3.622976 3.650544 3.636836 3.558544 3.479060 3.482390 3.466994 3.482197
2.959237 2.903568 2.919435 2.923313 2.901967 2.882271 2.878310 2.955077 2.936670 3.020507 3.029253 2.986773 2.985298 3.021457 2.968900 2.985034 3.013986 2.990398 2.967217 2.941908 2.863219 2.859578 2.899314 2.870979 2.850320 2.773293 2.740024 2.875854 2.939384 2.893850 2.938740 2.969837 2.978131 2.988301 3.007809 3.018805 3.025224 3.026640 3.025048 3.021681 3.016352 3.008380 2.997716 2.983849 2.968151 2.954485 2.943525 2.935122 2.928944 2.924248 2.919407 2.914531 2.910600 2.907701 2.905465 2.903421 2.901247 2.898824 2.896075 2.892948 2.890249 2.887428 2.883307 2.885315 2.920007 2.913841 2.866423 2.906389 2.986314 3.039740 3.076983 3.107294 3.154752 3.189017 3.274454 3.266565 3.209002 3.266385 3.349844 3.232218 3.279758 3.278882 3.310175 3.339601 3.293791 3.306649 3.290965 3.254960 3.207041 3.224710 3.230780 3.136286 3.031718 3.031531 3.000995 3.059504 3.083115 3.059964 3.050202 3.059265 3.087002 3.105655 3.080553 3.034034 3.042120 3.056875 2.958632 3.035779 3.032682 3.150906 3.222594 3.215033 3.184321 3.163018 3.142790 3.122998 3.103163 3.083558 3.064425 3.045636 3.026699 3.007167 2.987552 2.973234 2.973250 2.984500 2.985859 2.966611 2.964547 2.987171 2.956716 2.946189 2.932211 2.950006 3.008198 2.962268 2.960581 2.960110 2.959050 2.953184 2.953838 2.975139 3.004924 3.101503 3.115825 3.110878 3.108541 3.102281 3.088573 3.077713 3.080469 3.114757 3.072871 3.043648 3.050191 3.114848 3.253161 3.241979 3.218669 3.200781 3.189095 3.183415 3.182486 3.182964 3.183007 3.179724 3.167806 3.165370 3.149598 3.229087 3.469682 3.467070 3.487316 3.428288 3.355391 3.292059 3.238759 3.193421 3.154464 3.120041 3.090357 3.067449 3.048656 3.010507 2.970839 3.023669 3.017270 3.017650 2.962247 2.964013 2.993761 2.947003 2.866579 2.880932 2.890251 2.905080 2.926171 2.928518 2.918402 2.949049 2.983969 2.967850 3.014034 2.985090 2.946427 2.987013 3.027356 2.973393 3.029759 3.086831 3.059249 3.032031 3.049742 3.051078 3.069875 3.068818 3.080627 3.093395 3.105625 3.121412 3.133575 3.114595 3.102132 3.093971 3.087601 3.082504 3.078879 3.076741 3.077552 3.082010 3.090778 3.099590 3.102377 3.103345 3.108316 3.105733 3.102946 3.098566 3.091406 3.081526 3.069862 3.056430 3.042041 3.039287 3.058875 3.148640 3.225685 3.250330 3.246361 3.247000 3.249438 3.253525 3.257977 3.264847 3.262471 3.239531 3.199339 3.170525 3.187426 3.219981 3.177302 3.171368 3.255145 3.296238 3.241223 3.311196 3.318774 3.305897 3.270887 3.254830 3.304621 3.290808 3.292631 3.345840 3.376690 3.334809 3.289544 3.317973 3.320330 3.341694 3.356876 3.306106 3.246839 3.254352 3.322527 3.327782 3.336460 3.411297 3.427176 3.414354 3.430234 3.468937 3.447927 3.531134 3.543404 3.469837 3.476872 3.564848 3.607998 3.565344 3.503748 3.542134 3.613463 3.529011 3.451438 3.473947 3.422576 3.510916 3.478982 3.440993 3.413095 3.398980 3.409344 3.454849 3.462209 3.432029 3.432394 3.500016 3.467918 3.422122 3.575799 3.592934 3.488607 3.523703 3.648727 3.686605 3.606909 3.523029 3.483977 3.508472 3.516359
3.030473 2.963974 3.004743 3.011220 2.960111 2.929374 2.948999 2.933520 2.913979 3.002558 3.065783 3.051985 2.987252 2.920932 2.982371 3.035120 3.038997 3.024919 2.980409 2.959008 3.022485 2.900833 2.979425 2.923749 2.868219 2.785595 2.727566 2.803133 2.874946 2.811802 2.843993 2.898464 2.934638 2.958957 2.990073 3.023674 3.025893 3.022451 3.015339 3.008539 3.002023 2.992957 2.981407 2.966556 2.952086 2.940591 2.931991 2.925653 2.920765 2.916161 2.911472 2.907398 2.903964 2.901098 2.898556 2.896064 2.893460 2.890626 2.887786 2.884910 2.882074 2.878927 2.874090 2.871917 2.898100 2.866994 2.894472 2.994271 3.071678 3.087463 3.098671 3.109951 3.115325 3.125161 3.273988 3.314688 3.190622 3.156662 3.250910 3.340961 3.295983 3.332222 3.362839 3.334065 3.278231 3.123440 3.363449 3.303722 3.227832 3.196679 3.117149 2.975157 2.994423 3.007873 3.018147 3.085696 3.109248 3.090941 3.088763 3.084664 3.073861 3.088696 3.075696 3.050787 3.033256 3.033677 3.078480 3.154518 3.230003 3.258040 3.241825 3.214038 3.193229 3.174506 3.156826 3.139299 3.121619 3.103663 3.085476 3.066858 3.047360 3.027173 3.010768 3.004631 2.998323 3.028476 3.066242 3.037918 2.997283 2.976270 2.938367 2.937431 2.944673 2.935597 2.913327 2.898668 2.899407 2.926267 2.966443 2.962810 2.971597 3.019250 2.925226 2.924077 2.930735 3.023777 3.061326 3.013814 2.984456 3.047183 3.130274 3.072755 3.037562 3.019759 3.032269 3.120886 3.268478 3.224345 3.213421 3.208057 3.203103 3.199569 3.198797 3.200164 3.202240 3.203419 3.185430 3.175558 3.197204 3.314718 3.523510 3.526151 3.513951 3.457675 3.388410 3.323491 3.266381 3.215416 3.170732 3.131205 3.096591 3.066641 3.057450 3.027163 2.952547 2.957256 2.959252 2.953725 2.983453 3.020271 3.008820 2.955721 2.945525 2.869849 2.941601 2.948011 2.945232 2.964012 2.948899 2.872790 2.873906 2.913199 2.942982 2.947354 2.950724 2.968295 2.975306 2.931581 3.039425 3.046674 3.020464 3.016721 3.050791 3.124436 3.153697 3.143497 3.147286 3.152841 3.158104 3.170502 3.188121 3.183484 3.117844 3.065676 3.050337 3.052130 3.051044 3.048781 3.047901 3.056812 3.132570 3.159650 3.141240 3.122964 3.119588 3.115206 3.111541 3.106807 3.101100 3.095360 3.090243 3.085949 3.082368 3.076652 3.093434 3.220025 3.276670 3.247408 3.235661 3.232692 3.232456 3.233420 3.234512 3.234903 3.231914 3.221773 3.202728 3.177905 3.232244 3.240106 3.194912 3.213087 3.298270 3.295903 3.305525 3.320941 3.326072 3.347102 3.320077 3.256933 3.267455 3.277783 3.293816 3.325391 3.355453 3.363193 3.357025 3.367028 3.393687 3.357800 3.324147 3.343992 3.323651 3.277011 3.286293 3.244385 3.266496 3.360335 3.442889 3.459696 3.452281 3.473772 3.486854 3.501533 3.554255 3.507564 3.520693 3.562646 3.566054 3.662172 3.592670 3.555326 3.610571 3.584280 3.517483 3.535453 3.572911 3.547611 3.547031 3.564910 3.556139 3.494006 3.463763 3.576272 3.557668 3.500080 3.403481 3.386120 3.461996 3.542293 3.546094 3.585733 3.477064 3.582951 3.681524 3.684090 3.647341 3.637173 3.599282 3.584835 3.573335
3.074740 3.032613 3.010949 2.997680 2.967431 2.927705 2.917075 2.928112 2.909869 2.902062 2.886386 2.927142 3.025469 3.034484 3.022510 3.053640 3.052706 3.009975 2.975005 2.984560 2.993568 2.952677 2.995052 2.943731 2.857105 2.829618 2.866571 2.900110 2.908675 2.852184 2.859455 2.861400 2.867017 2.894934 2.929208 2.952318 2.997710 3.008161 3.000738 2.990645 2.982738 2.974763 2.964195 2.950683 2.937862 2.928367 2.921755 2.916679 2.912161 2.907810 2.903989 2.900754 2.897716 2.894920 2.892370 2.889856 2.887044 2.883778 2.880429 2.877070 2.873703 2.869762 2.863223 2.855939 2.872725 2.830877 2.933683 3.033945 3.053475 3.078272 3.196527 3.118447 3.156980 3.159890 3.252445 3.297532 3.245526 3.259178 3.258489 3.319946 3.286041 3.262100 3.272251 3.279306 3.236502 3.145913 3.249506 3.224640 3.143166 3.163313 3.169357 3.010187 3.002264 2.980284 3.028704 3.071637 3.065165 3.065419 3.103420 3.034319 3.010158 3.070397 3.140841 3.177473 3.106101 2.993516 3.106190 3.206355 3.236863 3.226990 3.215451 3.206537 3.192519 3.178530 3.164532 3.150479 3.136540 3.122096 3.105728 3.086810 3.066986 3.049929 3.038484 3.031088 3.020198 3.016470 3.026098 3.034478 2.998324 2.850343 2.913324 2.909437 2.912581 2.955138 2.906900 2.891860 2.959795 2.947101 2.954922 2.963839 2.961835 2.966611 2.954579 3.016359 2.903551 2.943570 3.012941 3.022871 3.031167 3.037829 3.104023 2.995991 2.976948 3.000815 3.014996 3.060310 3.176410 3.188736 3.196342 3.203573 3.208981 3.212757 3.216897 3.222808 3.231634 3.245476 3.270878 3.266621 3.324015 3.465093 3.538332 3.559341 3.536721 3.482432 3.413834 3.344508 3.281001 3.224648 3.175085 3.132032 3.095280 3.069008 2.999746 2.931797 2.953154 2.901144 2.894375 2.901160 2.978398 3.044949 3.037183 2.985301 2.940620 2.878219 2.930511 2.967588 3.002220 3.012539 2.975831 2.982515 2.927050 2.894204 2.868440 2.901741 2.957382 2.965016 2.955011 2.970033 3.053571 3.046871 3.038234 3.041450 3.043258 3.106262 3.168039 3.215504 3.228847 3.222306 3.210192 3.193340 3.167914 3.168202 3.132982 3.065917 3.033143 3.028634 3.024188 3.013964 2.984091 3.055281 3.179538 3.193874 3.151813 3.132174 3.123890 3.119221 3.115918 3.112690 3.109851 3.108174 3.108032 3.108833 3.109101 3.108906 3.122973 3.168772 3.204632 3.213496 3.210751 3.210692 3.211508 3.212715 3.213960 3.214691 3.214324 3.212599 3.210218 3.209558 3.243681 3.299353 3.283653 3.262800 3.309076 3.320732 3.324951 3.322039 3.319448 3.300751 3.281830 3.291942 3.313200 3.297589 3.267466 3.273383 3.311517 3.327822 3.302100 3.298491 3.411047 3.332424 3.335410 3.346148 3.312747 3.299203 3.364034 3.331442 3.347982 3.355330 3.301841 3.282212 3.334363 3.412214 3.536868 3.573211 3.511729 3.551928 3.511275 3.428681 3.503210 3.596968 3.588788 3.544561 3.638364 3.568828 3.470594 3.558695 3.508452 3.614467 3.646691 3.687485 3.637279 3.551869 3.558351 3.610852 3.579439 3.544846 3.490765 3.490214 3.526079 3.533330 3.508475 3.514637 3.528486 3.601865 3.649440 3.664302 3.673932 3.670511 3.643728 3.597807 3.581995
3.044508 3.050333 3.035495 3.009975 2.988220 2.964876 2.927713 3.033177 2.996349 2.926943 2.854191 2.858446 2.948536 2.977227 3.093896 2.992480 3.045014 3.047647 2.996987 3.009768 3.018874 2.968687 2.985768 2.937791 2.968569 2.996296 2.955848 2.973193 3.002607 2.897543 2.851977 2.843470 2.811972 2.811203 2.935964 2.940300 2.951817 2.975286 2.958037 2.946184 2.961540 2.959184 2.951947 2.940573 2.927229 2.917691 2.911642 2.907073 2.903265 2.900143 2.897355 2.894483 2.891753 2.889314 2.887105 2.884824 2.882021 2.878618 2.874587 2.870099 2.865388 2.860076 2.850549 2.826829 2.772450 2.926569 3.048345 3.067590 3.056108 3.105988 3.207899 3.229594 3.140401 3.143506 3.275798 3.329591 3.255526 3.271994 3.139952 3.213404 3.243609 3.262614 3.218677 3.143704 3.145423 2.909834 3.106261 3.063599 3.084029 3.093567 2.996574 2.928190 2.965479 3.052596 3.139239 3.137039 3.056684 3.029575 3.107912 3.042111 3.057690 3.132745 3.183010 3.167218 3.110712 3.080013 3.111033 3.155869 3.184080 3.194824 3.197428 3.195782 3.188487 3.178910 3.168678 3.158476 3.148311 3.137331 3.123413 3.105758 3.087157 3.072252 3.060599 3.047648 3.033224 3.018859 3.009355 3.005936 2.985279 2.953705 2.956403 2.930147 2.929564 2.960041 2.940464 2.946410 2.947764 2.943038 2.906941 2.876568 2.887803 2.931909 2.971969 2.961335 2.917266 2.944096 2.944995 2.957457 3.069112 3.022538 3.074976 2.972539 3.018696 3.092831 3.066036 3.015812 3.121954 3.158583 3.178006 3.193827 3.207279 3.218594 3.229962 3.243486 3.261402 3.299040 3.293172 3.386897 3.560094 3.646472 3.576422 3.528875 3.547676 3.508364 3.435109 3.356216 3.282197 3.218345 3.164952 3.120605 3.085500 3.058358 2.997644 2.922176 2.908067 2.906474 2.892884 2.916811 3.020862 3.124279 3.177787 3.180057 3.035533 2.921331 2.907512 2.965688 3.019897 3.039875 3.053250 3.063312 2.997010 2.974625 2.973155 2.970085 2.967687 2.976722 2.970112 3.016809 3.044959 3.044607 3.035326 3.031247 3.052925 3.124174 3.179968 3.241485 3.305710 3.309793 3.269829 3.230198 3.182714 3.173886 3.107438 3.048197 3.035046 3.046774 3.054400 3.065156 3.077105 3.125821 3.174706 3.174921 3.149987 3.133466 3.123164 3.117905 3.115623 3.114515 3.114444 3.116301 3.121078 3.128319 3.134475 3.136881 3.136947 3.142047 3.158367 3.176149 3.181319 3.184522 3.187377 3.190098 3.192699 3.194942 3.197004 3.199848 3.205159 3.214022 3.244295 3.381989 3.387593 3.306590 3.322186 3.320077 3.316011 3.306844 3.309282 3.285260 3.281230 3.332271 3.357102 3.281644 3.259952 3.258225 3.254730 3.253356 3.268743 3.303364 3.313893 3.348444 3.374006 3.382427 3.359268 3.329763 3.350740 3.401438 3.409461 3.381313 3.374146 3.366414 3.339378 3.324873 3.300853 3.479764 3.458798 3.460679 3.477467 3.478290 3.481033 3.395123 3.520706 3.592724 3.610648 3.594753 3.599181 3.645483 3.665940 3.625156 3.562959 3.589380 3.553803 3.526150 3.598218 3.541733 3.470420 3.513410 3.549346 3.570749 3.550787 3.495304 3.478219 3.473467 3.496189 3.529814 3.538441 3.574361 3.650010 3.666336 3.624133 3.604810 3.633615
3.081675 3.067713 3.034512 2.999401 2.996289 3.036643 3.043347 3.013187 3.010618 2.996870 2.973690 2.911880 2.826472 2.864298 2.946369 2.912457 2.985394 2.963130 2.909208 2.977624 2.962927 2.920242 2.903370 3.002896 3.049512 3.047621 3.078354 3.072543 3.035619 2.971168 2.941657 2.924087 2.896812 2.874123 2.880363 2.937299 2.905735 2.900455 2.902150 2.903718 2.925544 2.976420 2.947383 2.935504 2.918001 2.906297 2.901089 2.897963 2.895476 2.893096 2.890635 2.888216 2.886174 2.884548 2.882973 2.880950 2.878291 2.874886 2.870662 2.865634 2.860134 2.856304 2.836265 2.759179 2.753920 2.934016 3.081538 3.113591 3.097910 3.139895 3.222239 3.131256 3.035539 3.098724 3.190160 3.182075 3.136386 3.222292 3.209027 3.265544 3.301347 3.327670 3.221723 3.063410 3.135521 2.950482 3.104220 3.165712 3.117856 3.027701 2.953571 2.902719 2.946131 3.064031 3.084963 3.090840 3.079923 3.063770 3.084214 3.047266 3.091000 3.114969 3.100647 3.067811 3.034940 3.018126 3.066227 3.123623 3.159687 3.175072 3.181037 3.183523 3.182195 3.176948 3.170126 3.163317 3.157294 3.150385 3.139729 3.123870 3.105209 3.089945 3.075278 3.058315 3.038654 3.018873 3.002938 2.991603 2.973571 2.950956 2.931433 2.915669 2.916738 2.945969 2.977791 2.882618 2.940283 2.900609 2.850775 2.853902 2.902011 2.946701 2.914793 2.920930 2.931774 2.944594 2.918782 2.914035 2.999698 2.945709 2.967677 2.965298 3.007957 3.053259 3.055824 3.041813 3.082600 3.132569 3.158652 3.179790 3.198411 3.214017 3.229747 3.247836 3.272257 3.273983 3.206661 3.313659 3.540649 3.651134 3.641922 3.523323 3.531620 3.548612 3.469900 3.336845 3.241820 3.176575 3.126088 3.089176 3.064931 3.035228 3.011547 2.995871 2.949231 2.900565 2.941562 2.992817 3.068362 3.176768 3.269511 3.263520 3.146245 2.960209 2.946527 2.965160 2.962225 2.954983 2.959587 3.006776 2.994275 2.937150 2.927570 2.944262 2.963767 2.984124 2.953353 2.959335 3.031668 3.046661 3.038078 3.070776 3.134962 3.146270 3.179462 3.226574 3.282536 3.317570 3.300393 3.239027 3.195614 3.113593 3.102280 3.067391 3.056591 3.078215 3.104572 3.133912 3.152641 3.091897 3.119599 3.146573 3.139214 3.126128 3.117449 3.113062 3.112005 3.112954 3.115472 3.119760 3.126836 3.138187 3.153894 3.150529 3.134358 3.123796 3.127845 3.140180 3.148217 3.154353 3.159926 3.164994 3.169697 3.173972 3.178392 3.184288 3.193014 3.204864 3.231691 3.363897 3.403728 3.339830 3.325935 3.316622 3.312516 3.312850 3.316422 3.323470 3.356171 3.397033 3.346412 3.282197 3.252687 3.222980 3.250581 3.235178 3.177971 3.353057 3.364838 3.313980 3.322114 3.337228 3.360857 3.392267 3.375053 3.408750 3.237232 3.280349 3.437039 3.490673 3.431203 3.438645 3.468463 3.454994 3.386285 3.428409 3.457251 3.453820 3.533165 3.377860 3.414569 3.566176 3.587144 3.536880 3.535649 3.580107 3.594819 3.667438 3.664166 3.649824 3.645943 3.629648 3.580631 3.547264 3.493344 3.537063 3.627617 3.595911 3.464088 3.405551 3.483882 3.507654 3.470154 3.537026 3.594174 3.567588 3.535135 3.627645 3.640903 3.620108 3.655499
3.053897 3.053036 3.024847 2.995643 2.990313 2.993818 3.014163 2.987309 3.010622 2.999110 2.948908 2.927673 2.959274 2.928859 2.882995 2.889984 2.882364 2.859875 2.886624 2.961709 2.970803 2.923586 2.994794 3.047742 3.101335 3.134594 3.104156 3.103871 3.054464 3.041518 3.037899 3.042023 3.057811 3.030657 2.884020 2.813794 2.834856 2.830414 2.835737 2.880290 2.934072 2.943143 2.960747 2.927003 2.909169 2.897541 2.889188 2.888337 2.886124 2.884388 2.882958 2.881992 2.881422 2.880860 2.879913 2.878363 2.876009 2.872679 2.868358 2.863068 2.852298 2.845584 2.848538 2.825105 2.892406 2.939418 3.045850 3.103597 3.102255 3.144058 3.224509 3.285840 3.292257 3.264182 3.247056 3.284356 3.333056 3.268507 3.252459 3.303970 3.302580 3.311941 3.272122 3.126234 3.023564 3.111505 3.165746 3.158284 3.064895 3.003396 3.012760 2.970740 3.001813 3.054425 3.052106 3.050001 3.043881 3.040433 3.088609 3.114733 3.064234 3.058935 3.053581 3.036488 3.019731 3.017790 3.056942 3.120263 3.149184 3.161378 3.167640 3.171085 3.172740 3.171748 3.168585 3.164839 3.162251 3.160625 3.155214 3.140922 3.120812 3.104586 3.087302 3.064919 3.039110 3.015426 2.997899 2.984129 2.967808 2.950929 2.937233 2.930514 2.932434 2.943443 2.949027 2.858489 2.929034 2.907750 2.888712 2.936905 2.989211 2.944654 2.967449 2.917614 2.916313 2.915347 2.923153 2.962053 2.994276 2.981591 2.972639 2.967304 2.967811 2.953798 2.970298 3.069886 3.071341 3.082989 3.115834 3.157043 3.188263 3.204970 3.217914 3.230087 3.241159 3.231837 3.086802 3.030133 3.164762 3.343552 3.411855 3.490469 3.528750 3.519904 3.405798 3.245367 3.130843 3.053969 3.049035 3.043606 3.050264 3.023903 3.007316 3.023361 2.974272 2.919851 2.926477 2.988127 3.054859 3.099388 3.122870 3.124533 3.076145 2.931192 2.940132 2.939308 2.920407 2.939719 2.967997 2.969030 2.994447 2.971828 2.948986 2.944585 2.963106 2.998071 3.003915 2.984422 3.012843 3.032219 3.034854 3.084307 3.195902 3.155613 3.153669 3.153395 3.158043 3.150157 3.128174 3.113998 3.123775 3.161847 3.093737 3.058893 3.057502 3.070164 3.087117 3.078908 3.103847 3.051313 3.051778 3.102983 3.134272 3.110213 3.104520 3.103375 3.104407 3.107163 3.111367 3.116860 3.123604 3.131219 3.137538 3.141961 3.126982 3.107322 3.099889 3.106112 3.113739 3.121633 3.129745 3.137669 3.145262 3.152646 3.160222 3.168596 3.178461 3.187709 3.233678 3.300763 3.325784 3.308032 3.299978 3.296658 3.296257 3.297440 3.300101 3.305609 3.316513 3.320562 3.283321 3.228819 3.202965 3.217534 3.278279 3.289514 3.208792 3.213218 3.311947 3.287687 3.289361 3.318208 3.339484 3.345513 3.371565 3.433914 3.378909 3.465634 3.512095 3.488904 3.467116 3.441697 3.434278 3.340500 3.406175 3.408710 3.369705 3.418769 3.497159 3.470069 3.446434 3.494975 3.512784 3.511857 3.504530 3.473580 3.543309 3.553990 3.620040 3.684086 3.711413 3.666526 3.580590 3.662223 3.690004 3.655645 3.614386 3.576080 3.530256 3.507191 3.616558 3.570063 3.501029 3.525423 3.604834 3.632774 3.575345 3.533008 3.531963 3.566880 3.595263
3.054627 2.997312 3.028563 3.054026 3.025001 3.026155 3.020253 2.988945 3.046470 3.039581 2.996583 2.976836 2.960249 2.940908 2.932753 2.897447 2.862620 2.872704 2.858346 2.783902 2.911219 2.895273 2.955583 3.006201 3.060437 3.096221 3.086035 3.073494 2.985627 3.091707 3.103025 3.077803 3.073893 3.044896 2.946653 2.820079 2.757715 2.739423 2.795937 2.811056 2.760885 2.881862 2.885721 2.758547 2.836009 2.893132 2.875226 2.866155 2.872762 2.873651 2.875238 2.876780 2.877914 2.878491 2.878437 2.877601 2.875780 2.872789 2.867104 2.860701 2.867574 2.862555 2.824866 2.926282 2.967782 2.983476 3.072365 3.163574 3.177114 3.146365 3.209220 3.206509 3.289671 3.316364 3.270566 3.274824 3.389179 3.345732 3.222949 3.173453 3.201301 3.162129 3.153038 3.256153 3.106120 3.061681 3.087064 3.075959 3.037701 2.984990 2.950853 3.006966 3.044414 3.059780 3.005154 3.012864 3.013255 2.996697 3.148119 3.123426 3.089761 3.075931 3.066521 3.052580 3.037208 3.032203 3.059473 3.126996 3.147369 3.152789 3.157816 3.160426 3.161259 3.161046 3.160452 3.160579 3.161547 3.165505 3.171903 3.172246 3.148268 3.118826 3.096335 3.066238 3.034278 3.009590 2.992851 2.978745 2.964427 2.951536 2.942569 2.938401 2.940754 2.950150 2.961040 2.949886 2.990162 2.967700 2.891471 2.915997 3.021137 2.885616 3.023019 2.994548 2.964655 2.946006 3.018376 3.143976 3.090485 3.053260 3.019186 2.988479 2.960336 2.934315 2.947162 3.038659 3.100128 3.109354 3.088987 3.118549 3.175179 3.198429 3.173921 3.174432 3.169611 3.159615 3.056726 2.989235 2.992296 2.988901 3.134330 3.209610 3.384238 3.378113 3.302408 3.228623 3.101702 3.014177 3.010073 3.171107 3.098948 3.012316 3.018197 2.994729 2.974513 2.960299 2.967931 2.994991 3.015853 3.024452 3.024695 3.010540 2.972100 2.927110 2.901181 2.895072 2.910061 2.943891 2.984632 2.984098 2.967683 2.995303 3.005077 3.014576 3.025076 2.988880 3.049534 3.072952 3.004475 3.005152 3.058872 3.110747 3.163514 3.153499 3.108868 3.091522 3.094423 3.102876 3.083937 3.030873 3.066972 3.037787 3.042400 3.050312 3.053593 3.055148 3.042833 2.993983 3.042830 3.051971 3.035846 3.055030 3.085461 3.082260 3.083189 3.086928 3.091345 3.096277 3.101505 3.106670 3.111060 3.112459 3.101389 3.143759 3.125602 3.090084 3.073254 3.072593 3.078791 3.088258 3.099012 3.110212 3.121407 3.132574 3.143873 3.155541 3.168048 3.176867 3.219384 3.255243 3.270545 3.273962 3.274294 3.274970 3.276183 3.277004 3.276047 3.273461 3.270422 3.265415 3.246967 3.176536 3.165436 3.177369 3.197345 3.210829 3.218990 3.271110 3.307249 3.279441 3.268177 3.295475 3.338612 3.359264 3.331148 3.364574 3.383469 3.380136 3.411131 3.443300 3.433672 3.453791 3.470942 3.415401 3.491643 3.425257 3.356371 3.449109 3.441459 3.398837 3.430147 3.441560 3.425219 3.482125 3.574525 3.503785 3.498215 3.466924 3.567938 3.660310 3.666424 3.656446 3.722928 3.674500 3.673082 3.666460 3.629959 3.612195 3.611788 3.585056 3.600169 3.479704 3.439249 3.559153 3.612466 3.565063 3.542617 3.400432 3.497232 3.507358 3.468120
3.068533 3.009279 3.021473 3.040849 3.031273 3.059256 3.044975 3.015754 2.997388 2.988282 2.987180 2.985579 2.978465 3.018177 3.020735 2.948324 2.918202 2.897518 2.851841 2.845043 2.893475 2.886644 2.839781 2.851756 2.931102 3.016888 3.053954 3.083839 3.054563 2.956629 2.945088 3.005140 3.064403 3.075465 3.023232 3.001554 2.923800 2.902293 2.912542 2.852164 2.734489 2.776889 2.790805 2.794725 2.839343 2.874928 2.862992 2.831815 2.846172 2.863867 2.868436 2.873376 2.877504 2.879480 2.880174 2.880054 2.879174 2.877203 2.872842 2.862874 2.861516 2.867666 2.884686 2.994052 3.025853 3.047297 3.113077 3.128210 3.116030 3.225152 3.228337 3.248372 3.203897 3.270714 3.295462 3.252886 3.300586 3.283171 3.265594 3.231823 3.207457 3.173039 3.175034 3.241241 3.263664 3.120333 3.079284 3.048867 3.012795 3.016082 3.057766 3.025692 3.068027 3.021879 3.028408 3.034502 3.024062 3.047654 3.120566 3.116842 3.106202 3.096771 3.088732 3.078607 3.063888 3.048286 3.048724 3.154074 3.171405 3.155125 3.148997 3.151258 3.148416 3.145147 3.143891 3.144768 3.148886 3.150423 3.154819 3.175187 3.191453 3.135610 3.097661 3.060031 3.024555 2.999916 2.984845 2.972295 2.961106 2.952376 2.948684 2.948494 2.952170 2.973413 3.033387 3.001912 2.962612 3.006322 3.019331 3.004690 3.036826 3.043930 3.055311 3.008031 3.029692 3.055456 3.127248 3.232209 3.167166 3.121172 3.078211 3.036487 2.987535 2.949080 2.968304 3.067374 3.092816 3.123586 3.137499 3.141882 3.174411 3.181690 3.064084 3.095746 3.097913 3.114029 3.004158 2.933947 2.987484 3.004892 3.034050 3.047563 3.157584 3.210328 3.219464 3.198984 3.120682 3.088520 3.061832 3.166801 3.086521 2.990244 2.970444 2.942263 2.960455 2.951188 2.971643 2.982992 2.986086 2.985133 2.976160 2.957844 2.928423 2.906868 2.897579 2.890640 2.895250 2.920876 2.938801 2.967942 3.014110 3.027526 3.036247 3.036937 3.036017 3.085570 3.066556 3.062874 3.050766 3.063173 3.111808 3.176625 3.212508 3.176007 3.093915 3.063615 3.049487 3.076464 3.113653 3.079619 3.071813 3.069160 3.068922 3.071337 3.072754 3.068350 3.056275 3.039351 3.022952 3.047722 3.047333 3.037346 3.038142 3.036052 3.049003 3.063483 3.073796 3.081871 3.089046 3.095530 3.100410 3.102096 3.100830 3.113594 3.076591 3.059252 3.057831 3.034719 3.040918 3.053261 3.067541 3.082853 3.098930 3.115149 3.130557 3.143847 3.152264 3.154471 3.196122 3.231781 3.247543 3.254323 3.256953 3.257938 3.258076 3.256576 3.253231 3.246838 3.238147 3.229986 3.220576 3.162286 3.160514 3.153562 3.187562 3.276972 3.333979 3.297758 3.258543 3.240696 3.244884 3.270742 3.309053 3.329437 3.305786 3.321540 3.342071 3.363831 3.361038 3.359649 3.404534 3.437046 3.432494 3.478959 3.493376 3.474161 3.471126 3.479857 3.426489 3.381203 3.451416 3.444376 3.411538 3.441975 3.524845 3.563400 3.585203 3.535327 3.574643 3.661955 3.679296 3.645862 3.697114 3.545833 3.734781 3.749895 3.593235 3.528939 3.653735 3.721910 3.518288 3.493449 3.559497 3.613052 3.646465 3.667514 3.648847 3.608089 3.560544 3.519921 3.549797
3.122681 3.106947 3.088867 3.066931 3.038759 2.999546 3.032305 2.971400 2.972625 2.989290 2.976565 2.964840 3.009852 3.001004 3.050975 3.006994 2.985576 2.969158 2.950188 3.004949 2.919772 2.876939 2.819802 2.818417 2.868662 2.931865 2.979296 2.962847 3.005531 2.923312 2.831700 2.884022 2.989793 2.954184 3.062776 2.996840 2.913842 2.952420 2.996251 2.908877 2.765378 2.857875 2.699527 2.767869 2.805964 2.768170 2.772971 2.863387 2.849604 2.861072 2.896862 2.897139 2.891604 2.894462 2.892939 2.887321 2.862841 2.826529 2.864224 2.847061 2.806262 2.862318 2.989092 3.031999 3.002280 3.041509 3.095183 3.117898 3.175848 3.319819 3.251859 3.272991 3.206205 3.249046 3.282471 3.241598 3.274235 3.258347 3.261009 3.242102 3.180612 3.144667 3.151599 3.167940 3.206298 3.148557 2.996565 2.932822 2.965043 3.013190 3.031383 3.058775 3.069733 3.023282 2.981575 3.006762 3.035113 3.012687 3.095394 3.109944 3.112084 3.110267 3.108174 3.106260 3.099457 3.081174 3.077989 3.179422 3.228315 3.188854 3.138690 3.138137 3.132915 3.129070 3.124359 3.119178 3.098414 3.097613 3.124856 3.117636 3.094596 3.073061 3.087690 3.076669 3.027145 2.978132 2.969132 2.961018 2.955867 2.955109 2.958851 2.962419 2.966101 2.978117 3.005173 2.988338 2.972337 2.975593 2.982361 2.996608 3.031126 3.055658 3.105909 3.107448 3.084992 3.211890 3.349234 3.283389 3.232975 3.185225 3.141280 3.099907 3.058957 3.032554 3.039840 3.076712 3.079110 3.116034 3.115040 3.122602 3.160144 3.163633 3.065059 3.064048 3.045395 2.999729 2.960583 2.983802 3.021071 2.966920 3.017730 3.017308 3.048221 3.045724 3.048240 3.082659 3.095529 3.091998 3.105989 3.095265 3.028406 2.987899 2.986049 2.941549 2.899019 2.936470 2.961659 2.969170 2.967507 2.960901 2.947462 2.927512 2.901423 2.882852 2.907719 2.913065 2.904660 2.934786 2.979732 2.970518 3.001057 3.034650 3.053370 3.029600 2.997705 3.070028 3.051826 3.042586 3.035452 3.044982 3.105152 3.213538 3.290445 3.228422 3.088871 2.991215 2.982980 3.039454 3.094646 3.089807 3.072039 3.083371 3.093750 3.102249 3.109170 3.111261 3.099124 3.053353 3.041091 3.062793 3.051868 3.053115 3.064137 3.032310 3.044446 3.057817 3.069870 3.079561 3.087060 3.093590 3.099261 3.099475 3.099261 3.050497 3.046139 3.069823 3.051808 2.990403 2.997508 3.019040 3.037747 3.056789 3.078628 3.103237 3.130152 3.157771 3.155455 3.193033 3.217045 3.230949 3.240340 3.244503 3.245653 3.245376 3.244255 3.241024 3.234731 3.224563 3.209822 3.194556 3.202152 3.166509 3.222496 3.281376 3.334411 3.371465 3.343388 3.317866 3.316132 3.307480 3.316519 3.297828 3.260488 3.282330 3.291293 3.309052 3.307476 3.356730 3.341884 3.294914 3.362806 3.429687 3.395501 3.376486 3.430500 3.488204 3.492150 3.484897 3.555045 3.446035 3.420193 3.410579 3.358608 3.291212 3.309154 3.489895 3.532267 3.660540 3.705511 3.736408 3.699478 3.570055 3.542142 3.533200 3.689782 3.661199 3.523696 3.551788 3.746516 3.745688 3.676137 3.630045 3.624746 3.624230 3.676940 3.752290 3.702332 3.569602 3.642454 3.511979 3.559081
3.135324 3.108599 3.082800 3.058965 3.032575 2.993165 2.981179 2.924512 2.979976 3.028451 3.017956 2.998732 2.966207 3.003349 2.959439 2.990754 3.033539 3.023434 2.982450 2.975603 2.942698 2.923106 2.896570 2.866019 2.847619 2.823032 2.776830 2.928582 2.922270 2.974450 2.898016 2.883412 2.977365 2.930739 2.984426 2.985181 2.980592 3.004391 3.037018 3.031190 2.972688 2.952893 2.796446 2.798598 2.749054 2.699300 2.728269 2.797855 2.853480 2.856236 2.876078 2.940738 2.967770 2.944697 2.927318 2.891092 2.906170 2.816926 2.802891 2.774575 2.805794 2.964031 3.017134 2.989228 2.974072 3.056375 3.068938 3.093165 3.202260 3.193938 3.384709 3.362599 3.321599 3.294350 3.287501 3.286407 3.267511 3.348295 3.271876 3.101980 3.160015 3.272292 3.253546 3.211773 3.119473 2.978152 2.889888 2.956367 3.034537 2.998311 2.912164 2.955945 3.016709 3.026448 3.005788 3.022552 3.062225 3.069510 3.095492 3.106853 3.112492 3.116060 3.120349 3.129905 3.139551 3.127206 3.132781 3.167924 3.161806 3.159817 3.149508 3.113786 3.160823 3.120189 3.093647 3.068609 3.042929 3.041909 3.074482 3.098465 3.063151 3.055554 3.047761 3.022980 2.955084 2.892809 2.935562 2.949625 2.957826 2.970174 2.986283 3.005566 3.012346 2.990788 2.992816 3.028495 2.993644 3.001063 3.030361 3.027703 3.007252 3.040420 3.175118 3.217957 3.319258 3.381091 3.348307 3.303671 3.265919 3.227651 3.190228 3.154512 3.121119 3.092464 3.074019 3.072724 3.082502 3.073544 3.064058 3.081421 3.101295 3.091703 3.070491 2.992559 2.944726 2.961315 3.002628 3.029610 3.023301 2.982977 3.015209 2.995019 2.987168 2.989554 3.025976 3.077713 3.070035 3.075167 3.138085 3.092362 3.057309 2.995847 2.902789 2.906886 2.915107 2.943663 2.963884 2.966730 2.959269 2.947889 2.931250 2.910675 2.890492 2.898985 2.888296 2.904213 2.951392 2.977204 2.974458 2.965728 2.994247 3.003088 3.016413 3.053104 3.077629 3.030186 3.023739 3.023969 3.035182 3.057656 3.097643 3.149555 3.174441 3.149699 3.038953 3.018548 3.011231 3.001223 3.019017 3.030104 3.045808 3.067692 3.098229 3.129314 3.147398 3.147890 3.128830 3.035966 3.004252 2.985680 3.022050 3.031134 3.004411 3.060702 3.065871 3.076889 3.088345 3.098320 3.102749 3.103719 3.101926 3.073140 3.020870 3.006458 3.038805 3.064233 3.084545 3.108606 3.015256 3.013083 3.025717 3.042934 3.064795 3.095193 3.147677 3.239994 3.278015 3.249326 3.237612 3.240823 3.243378 3.243101 3.240453 3.236584 3.232688 3.228831 3.221232 3.206145 3.188840 3.178057 3.116232 3.226997 3.253502 3.311562 3.378791 3.369085 3.336778 3.331964 3.361415 3.349628 3.337549 3.308619 3.275739 3.289720 3.266058 3.280867 3.306438 3.312674 3.306470 3.296698 3.293976 3.376137 3.376544 3.369154 3.413900 3.469699 3.473369 3.453572 3.567838 3.483958 3.450085 3.410202 3.420594 3.448602 3.449971 3.544467 3.539402 3.482871 3.532523 3.646701 3.648124 3.523297 3.564754 3.503782 3.614967 3.645000 3.592727 3.610456 3.733099 3.754360 3.750951 3.693517 3.740966 3.721925 3.710271 3.758894 3.658594 3.584706 3.644058 3.545548 3.638142
3.125950 3.091116 3.057883 3.027094 2.997333 2.966225 2.921191 2.872106 3.016916 3.016826 2.929841 3.027459 2.981232 2.996167 2.973179 2.986046 3.033508 3.057004 3.041238 3.057977 3.006006 3.014910 2.998808 2.955568 2.909431 2.868920 2.835039 2.889052 2.888993 2.830401 2.849668 2.920106 2.931179 2.887423 2.928677 2.997241 2.993389 3.000088 3.011806 3.001175 2.995740 2.948876 2.846039 2.847746 2.849379 2.848076 2.816299 2.715602 2.730346 2.800867 2.847337 2.876127 2.863219 2.866216 2.936729 2.916012 2.873869 2.879161 2.770746 2.770828 2.925703 3.032216 3.037870 2.933110 3.000142 3.093295 3.105288 3.151115 3.299401 3.317849 3.288506 3.281988 3.203321 3.213874 3.279995 3.272313 3.241667 3.261710 3.203751 3.175331 3.165830 3.162466 3.146326 3.102028 3.041564 2.867350 2.915318 3.011858 3.041422 3.029521 3.043002 3.015440 2.978493 2.971935 3.000555 3.037787 3.070580 3.103722 3.108988 3.102701 3.101347 3.104185 3.110614 3.122804 3.129724 3.092543 3.078955 3.076899 3.029236 3.053941 3.120024 3.120098 3.170936 3.104791 3.040923 3.042420 3.043202 3.040604 3.062877 3.052050 3.022531 3.019568 3.053645 3.031517 2.996439 3.002691 2.961055 2.981116 2.984344 2.975577 2.999708 3.047706 3.078351 3.073265 3.002034 3.040015 3.037743 3.024261 3.037082 3.046049 3.004568 3.069928 3.087658 3.220604 3.329265 3.359154 3.341765 3.314611 3.286006 3.256107 3.225728 3.194914 3.165158 3.137932 3.114190 3.095722 3.091920 3.062324 3.059173 3.071493 3.070461 3.047332 3.019211 3.092184 2.996046 2.979331 2.994809 2.993214 2.995127 3.001095 3.001914 3.000513 2.991046 2.992621 3.011318 3.023482 3.001539 3.075371 3.112033 3.147710 3.104949 3.001273 2.940635 2.972550 2.960623 2.974926 2.965059 2.962528 2.961734 2.946860 2.930354 2.905189 2.925864 2.921575 2.913501 2.910684 2.939308 3.002572 2.975837 2.976923 3.017748 3.013789 3.026419 3.076505 3.082085 3.025434 3.039458 3.036538 3.053989 3.070584 3.081942 3.103272 3.100832 3.014488 3.027540 3.052844 3.023842 2.990420 3.013482 3.023568 3.034171 3.037855 3.065016 3.088280 3.086735 3.061289 3.031557 3.044061 2.960204 2.979974 3.024217 3.037476 3.037257 3.047887 3.083612 3.106936 3.129550 3.158149 3.169101 3.137979 3.076842 3.036790 3.057402 3.063441 3.056628 3.074416 3.111753 3.118837 3.078749 3.055617 3.047955 3.048784 3.050874 3.071950 3.142877 3.247796 3.277933 3.269457 3.263088 3.261657 3.258562 3.253016 3.245227 3.236193 3.227183 3.219925 3.213915 3.200099 3.180913 3.174405 3.040048 3.231727 3.236025 3.239693 3.302565 3.317992 3.300204 3.309191 3.318222 3.316767 3.309017 3.303369 3.303037 3.304690 3.308628 3.334294 3.297287 3.309008 3.325089 3.307221 3.330647 3.313323 3.354269 3.366141 3.451976 3.538389 3.568364 3.597290 3.584046 3.528314 3.462380 3.523207 3.557928 3.518137 3.530820 3.551427 3.495374 3.468981 3.445170 3.446489 3.460731 3.467220 3.554822 3.584641 3.514659 3.545805 3.563733 3.558229 3.616947 3.667088 3.680646 3.653147 3.690239 3.743942 3.765024 3.724729 3.651643 3.699248 3.723745 3.668219 3.698697
3.112418 3.082413 3.057534 3.036797 3.019636 3.006095 2.996279 2.993599 3.044455 3.106216 3.107389 3.039463 3.049181 2.992243 2.946489 3.010456 3.062019 3.054974 3.064172 3.109830 3.107125 3.091799 3.060362 3.017981 2.964986 2.916180 2.904279 2.857193 2.839527 2.819679 2.797420 2.787241 2.799931 2.811324 2.888917 2.973763 2.900798 2.888021 2.975603 3.032927 2.978680 2.975924 2.963696 2.951837 2.954863 2.944159 2.898189 2.854171 2.873255 2.780254 2.768034 2.808896 2.842813 2.858295 2.879818 2.885616 2.899774 2.868115 2.822910 2.869530 2.969983 2.983521 2.921468 3.002644 3.064895 3.107485 3.155171 3.154591 3.090366 3.170863 3.262943 3.156015 3.135298 3.210125 3.242935 3.203627 3.234710 3.059973 3.207489 3.174267 3.145848 3.166113 3.105552 2.961966 2.884087 2.837847 2.883432 2.951017 2.995527 3.022586 3.043967 3.047804 3.003533 3.010265 3.011842 3.045166 3.130662 3.172042 3.105065 3.087794 3.073838 3.065333 3.064971 3.066225 3.057819 3.042323 3.079386 3.036348 2.916204 2.943084 3.073482 3.062478 3.078251 3.117011 3.110327 3.063875 3.047812 3.061916 3.043662 2.990618 2.996133 3.009238 3.025243 3.028203 3.023471 3.021208 3.008919 2.988752 3.001285 2.987912 3.007528 3.050097 3.062833 3.037989 3.043592 3.012168 3.020808 3.022023 3.034343 3.070261 3.063503 3.064657 3.039915 3.216339 3.336409 3.352736 3.345408 3.326723 3.304723 3.280592 3.254442 3.227102 3.199580 3.172714 3.146610 3.119512 3.080901 3.042296 3.099117 3.121616 3.055423 3.013283 3.016089 3.026073 3.009238 2.985893 2.974551 2.977650 2.982943 2.987300 2.990582 2.994274 3.007194 2.973330 2.945264 2.983399 2.985551 3.026278 3.065331 3.149431 3.192599 3.170897 3.106705 3.004069 2.985199 2.990335 2.990700 3.002203 3.000520 2.975370 2.957731 2.930354 2.957785 2.957174 2.932390 2.921754 2.937901 2.956020 2.971482 2.986793 3.076511 3.093992 3.088858 3.098023 3.046196 2.983109 3.038601 3.057705 3.077292 3.096219 3.112228 3.113129 3.015851 3.003441 3.049474 3.028112 2.985428 2.994610 3.042744 3.048278 3.053710 3.045058 3.008573 3.013748 3.045797 3.044519 3.033796 3.008397 2.997821 2.986337 3.001828 3.040016 3.069219 3.083304 3.080139 3.118695 3.168236 3.217099 3.212899 3.138459 3.068935 3.045271 2.996389 3.014141 3.036514 3.039134 3.054189 3.095989 3.102722 3.096590 3.089461 3.094188 3.084432 3.080481 3.146166 3.223122 3.283012 3.295578 3.296300 3.294288 3.286648 3.274399 3.260238 3.245324 3.231019 3.220286 3.225277 3.217927 3.175579 3.174316 3.176592 3.302799 3.270073 3.180474 3.174974 3.239981 3.247134 3.294386 3.304398 3.305149 3.306420 3.309562 3.314452 3.321626 3.333481 3.351614 3.388386 3.371035 3.320207 3.297841 3.298139 3.288078 3.259756 3.322654 3.447013 3.520988 3.521421 3.547398 3.537075 3.571661 3.558394 3.544891 3.552687 3.541418 3.480807 3.507857 3.488644 3.473306 3.428047 3.429379 3.483932 3.509865 3.521428 3.533751 3.475281 3.541099 3.580422 3.525336 3.512169 3.627364 3.660352 3.670469 3.695413 3.744387 3.796627 3.815275 3.753337 3.657773 3.727694 3.740408 3.653413
3.107738 3.086453 3.069780 3.057191 3.047424 3.038790 3.032378 3.031452 3.040702 3.067921 3.092152 3.078834 3.050822 2.990160 3.000595 3.010029 3.027974 3.070440 3.112941 3.138284 3.099620 2.975804 2.948419 2.961602 2.971654 2.994486 2.945226 2.945970 2.929645 2.890514 2.829728 2.799546 2.812570 2.784025 2.841938 2.873148 2.788504 2.796828 2.890437 2.937451 2.972981 2.942150 2.885665 2.913959 2.981688 2.974052 2.870087 2.823482 2.954970 2.868779 2.840237 2.827272 2.828561 2.826837 2.762241 2.754533 2.839789 2.847528 2.860928 2.894437 2.925180 2.940388 2.884888 3.037656 3.067562 3.008709 3.032178 3.165725 3.240085 3.123005 3.210277 3.177711 3.198286 3.183132 3.125902 3.120704 3.095197 3.021088 3.074669 3.147142 3.154704 3.123818 3.087070 2.933968 2.840401 2.850067 2.916517 2.980338 3.015936 3.027307 3.020999 2.964386 3.009432 2.964273 2.949041 3.028404 3.121784 3.125611 3.129135 3.114338 3.027987 2.971916 2.985179 3.027160 3.044767 3.032475 3.072304 3.041816 3.042356 3.048340 3.032536 3.047769 3.042375 3.043984 3.083752 3.124141 3.105958 3.057835 3.060906 3.078770 3.076017 3.102657 3.098960 3.068870 3.038857 3.019819 3.015005 3.016948 3.029899 3.071231 3.121093 3.122334 3.057862 3.045408 2.964264 2.967370 2.994069 2.997458 3.004871 3.041750 3.055202 2.997733 3.138079 3.308324 3.367495 3.352131 3.343341 3.329050 3.312262 3.294622 3.276412 3.254505 3.228936 3.201906 3.169972 3.107836 3.087300 3.044687 3.087944 3.106739 3.029968 2.964845 2.960006 3.003286 2.977460 2.955944 2.957423 2.965206 2.971656 2.976606 2.980075 2.982843 2.985003 2.986000 2.966402 2.929384 2.960574 2.999029 3.102893 3.200385 3.255896 3.280034 3.270879 3.173627 3.156496 3.048457 3.071810 3.070901 3.049844 3.085219 3.031964 2.982177 2.957473 2.960552 2.964428 2.967904 2.976936 2.973939 2.989809 3.030863 3.057273 3.068628 3.074691 3.063113 3.021827 3.014220 3.065417 3.080331 3.088002 3.096555 3.092878 3.069550 3.042459 3.027064 3.004911 2.989055 3.009826 3.046538 3.061226 3.111029 3.124389 3.107221 3.067142 3.005351 2.992763 3.053268 2.973636 3.002606 3.068170 3.077538 3.077734 3.093954 3.103076 3.101464 3.067581 3.089398 3.153445 3.191676 3.169111 3.104360 3.032782 3.009349 2.975887 2.967628 2.956972 2.966314 3.016640 3.074475 3.095424 3.109921 3.121833 3.133528 3.139287 3.162735 3.231956 3.239713 3.299746 3.332429 3.342807 3.338798 3.324415 3.303958 3.281748 3.259340 3.238023 3.221649 3.212753 3.209286 3.208319 3.210630 3.303651 3.367708 3.279799 3.184780 3.192082 3.256166 3.283634 3.287035 3.286623 3.290009 3.295983 3.302704 3.310212 3.318837 3.328903 3.341618 3.358294 3.374906 3.371276 3.334275 3.295506 3.312545 3.278657 3.348737 3.480126 3.531206 3.481346 3.495960 3.476436 3.538376 3.510577 3.507859 3.546789 3.568823 3.563685 3.551086 3.537301 3.591750 3.502615 3.426100 3.480825 3.495503 3.491205 3.458727 3.458067 3.456806 3.489246 3.549368 3.578193 3.654431 3.648787 3.696745 3.722761 3.740928 3.726510 3.641946 3.644102 3.714105 3.718691 3.770831 3.766991
3.107218 3.093101 3.082485 3.073779 3.064556 3.055658 3.049146 3.046919 3.049788 3.061510 3.076130 3.075930 3.056313 3.036469 3.033879 3.024406 3.010199 3.029634 3.111304 3.155240 3.054832 2.944036 2.917564 2.918139 2.919288 2.958388 2.995758 2.988059 2.980734 2.959521 2.918018 2.888234 2.902974 2.899826 2.810745 2.796916 2.792177 2.825768 2.871388 2.885379 2.915565 2.872026 2.915889 2.905669 2.946769 2.995575 2.959583 2.942473 2.939531 2.984529 2.951299 2.942745 2.941611 2.886869 2.820974 2.670926 2.839732 2.875467 2.875860 2.860733 2.844921 2.940730 3.050290 3.014423 3.131618 3.153303 3.133285 3.174361 3.181901 3.146260 3.231482 3.295946 3.225441 3.084754 2.999655 3.024143 3.092693 3.131247 3.085181 3.094008 3.133066 3.144004 3.085169 2.935202 2.924377 2.926334 3.036025 3.091869 3.054265 3.021405 2.983382 2.949217 2.942571 2.931431 2.956106 2.999478 3.030190 3.075786 3.097419 3.086271 2.996549 2.950673 2.948482 2.952297 3.013080 3.055083 3.050887 3.048247 3.086814 3.104289 3.070917 3.058753 3.032080 2.970289 3.033761 3.101141 3.122340 3.108257 3.078952 3.091978 3.078237 3.092983 3.080667 3.060203 3.051616 3.043058 3.034310 3.024121 3.043246 3.020895 3.045892 3.062277 2.975143 3.032667 3.005248 3.052543 3.046528 3.038215 3.056920 3.067550 3.080525 3.109049 3.230577 3.311043 3.328377 3.318432 3.312941 3.307412 3.299298 3.289022 3.279300 3.270674 3.255561 3.230255 3.182009 2.982797 3.085576 3.095878 3.078164 3.034971 2.948884 2.901601 2.921084 2.939778 2.924362 2.928380 2.945910 2.957029 2.965008 2.970820 2.975191 2.977916 2.979388 2.978290 2.970707 2.957736 2.961916 3.081026 3.223889 3.264547 3.252166 3.248041 3.247416 3.257502 3.223907 3.150555 3.158128 3.137417 3.155590 3.293214 3.250018 3.072505 3.016419 3.018624 2.986778 2.960525 3.000978 3.024801 3.018010 3.049440 3.050865 3.028538 3.019511 3.027181 3.010263 3.102374 3.106961 3.096561 3.086450 3.079913 3.072491 3.053839 3.042089 3.028500 3.014930 3.020057 3.027358 3.041747 3.104978 3.197552 3.220992 3.172053 3.096872 3.026802 2.970079 2.929751 2.966238 3.017271 3.066979 3.086700 3.090006 3.093374 3.098778 3.105700 3.116229 3.111756 3.142420 3.137719 3.075225 3.005947 2.966489 2.936980 2.950933 2.988800 3.027508 3.059405 3.086589 3.095894 3.113079 3.133427 3.152251 3.163066 3.169888 3.186374 3.222849 3.255227 3.283120 3.367380 3.410037 3.397034 3.370472 3.337987 3.303806 3.268965 3.233276 3.183928 3.143400 3.132926 3.152998 3.251045 3.405058 3.412557 3.417562 3.360754 3.244570 3.215740 3.248358 3.258934 3.267231 3.275469 3.283830 3.292274 3.300883 3.309700 3.319097 3.329072 3.339490 3.352815 3.357033 3.339192 3.308467 3.288145 3.220527 3.315940 3.441634 3.485989 3.470063 3.431496 3.377068 3.510117 3.554061 3.559526 3.567603 3.568506 3.564833 3.557783 3.553426 3.597875 3.603793 3.566586 3.513515 3.469932 3.503676 3.472231 3.430500 3.378825 3.402286 3.499555 3.560765 3.630879 3.648843 3.682318 3.632544 3.610046 3.655105 3.689137 3.797779 3.865053 3.804871 3.805173 3.854232
3.107243 3.099510 3.093088 3.085379 3.075897 3.067026 3.060500 3.057197 3.057621 3.063366 3.071433 3.071505 3.057338 3.042517 3.034156 3.032320 3.013665 2.992214 3.021634 3.049278 3.031955 2.990263 2.964776 2.986031 3.004387 2.954734 3.017210 3.032200 2.988286 2.979699 2.966287 2.939624 2.947694 2.883634 2.868719 2.857815 2.816130 2.820077 2.867441 2.874079 2.859036 2.994287 3.001045 2.928306 2.897326 2.938262 3.001937 3.057199 2.996484 2.992762 3.025874 3.032881 2.966340 2.883566 2.923434 2.911557 2.934119 2.929270 2.963209 2.993572 2.969966 2.965712 3.056009 2.961821 3.170896 3.244537 3.192209 3.133675 2.963078 3.178051 3.176426 3.216968 3.235202 3.228729 3.212445 3.181304 3.246441 3.134192 3.137824 3.143889 3.125153 3.096081 3.041371 2.937928 2.955970 3.016575 3.029268 3.044951 3.061215 3.015219 2.999068 2.979517 2.957613 2.940265 2.911607 2.870317 2.864009 2.971132 3.045921 3.025987 2.970962 2.964356 2.995694 2.997167 2.960529 3.046983 3.012463 2.999324 3.054749 3.096972 3.057005 2.994005 2.970001 2.996461 3.072462 3.132508 3.134396 3.095230 3.077169 3.066669 3.062545 3.052880 3.057953 3.066426 3.065771 3.063899 3.061904 3.043712 3.058767 3.042826 3.044405 3.025933 2.919234 3.004513 3.011004 3.040002 3.029378 3.065217 3.134502 3.153842 3.232008 3.203433 3.225348 3.248731 3.261847 3.267364 3.266418 3.263953 3.261781 3.261047 3.260516 3.265998 3.269004 3.238815 3.144805 3.071043 3.148219 3.115163 3.068871 3.002898 2.894327 2.877541 2.940540 2.878219 2.897261 2.931216 2.947614 2.960259 2.968653 2.974418 2.978192 2.980076 2.980932 2.979564 2.973483 2.965235 2.976837 3.129218 3.190426 3.221388 3.245929 3.232621 3.188128 3.217531 3.224207 3.244702 3.279699 3.289529 3.276065 3.255479 3.177320 3.091320 3.029158 3.014809 3.008514 2.996557 3.009860 3.066494 3.045619 3.049080 3.043273 3.001126 2.987242 3.029837 3.005558 3.056341 3.080528 3.094606 3.091796 3.073841 3.053642 3.049871 3.071142 3.105962 3.088271 3.073256 3.070846 3.102663 3.216407 3.199075 3.179562 3.127092 3.048036 3.003441 2.979678 2.902518 2.921564 3.027247 3.068885 3.076103 3.078430 3.083331 3.088596 3.094102 3.099407 3.107382 3.112570 3.095462 3.031525 2.940381 2.937145 2.929305 2.964761 3.007274 3.022491 3.053922 3.128022 3.124238 3.147588 3.173097 3.193701 3.207814 3.215588 3.221250 3.234352 3.250107 3.338690 3.472001 3.519940 3.482143 3.429138 3.377219 3.325965 3.273706 3.217595 3.149031 3.121077 3.109197 3.020323 3.198027 3.297618 3.309082 3.294360 3.258946 3.206711 3.182112 3.223102 3.239971 3.251432 3.261515 3.271288 3.280917 3.290362 3.299526 3.308354 3.316709 3.323851 3.328158 3.326301 3.301354 3.222816 3.238609 3.238855 3.355868 3.435575 3.428796 3.432352 3.440976 3.476740 3.529150 3.605700 3.622665 3.593128 3.586745 3.578850 3.567347 3.553313 3.526813 3.567072 3.643617 3.651931 3.570718 3.648851 3.604533 3.546272 3.534870 3.490352 3.411568 3.467508 3.489943 3.563125 3.543611 3.589322 3.633347 3.627490 3.680609 3.662294 3.785337 3.680585 3.792059 3.927062
